# .PCD v0.7 - Point Cloud Data file format
VERSION 0.7
FIELDS x y z
SIZE 4 4 4
TYPE F F F
COUNT 1 1 1
WIDTH 1488
HEIGHT 1
VIEWPOINT 0 0 0 1 0 0 0
POINTS 1488
DATA ascii
4.7328868 -5.2585149 0.41734365
5.0338993 -4.9129057 0.435049
5.0318956 -4.2499919 0.5429818
5.0331807 -3.6718378 0.52969635
5.0322022 -3.1747479 0.61774504
5.1589427 -2.8358746 0.61636055
5.3891172 -2.6038427 0.62792486
3.0324945 -7.0995049 0.45193177
3.3604622 -6.6395965 0.59910357
3.7155228 -6.2852468 0.61707401
4.0622969 -5.9414787 0.63470978
4.3969936 -5.6132927 0.77883202
4.7264605 -5.285809 0.79398894
5.0275784 -4.9397507 0.80549163
5.0279918 -4.2665644 0.7716924
5.0277281 -3.6949944 0.84923506
5.0270996 -3.1964169 0.91675133
5.1540189 -2.8567836 0.90488636
5.3842525 -2.6245043 0.91302884
3.0255532 -7.1289854 0.85873419
3.3537002 -6.6683178 0.99542582
3.708849 -6.3135953 1.0082633
4.0557065 -5.9694719 1.0209796
4.3926558 -5.6317177 1.0330656
4.7221761 -5.3040056 1.0450854
5.0233645 -4.9576488 1.0524534
5.0221391 -4.2914276 1.114758
5.0222754 -3.7181506 1.1687738
5.0219979 -3.2180848 1.2157573
5.1490955 -2.8776932 1.1934125
5.3793874 -2.645165 1.1981328
3.0186119 -7.1584663 1.2655364
3.3491917 -6.6874642 1.2596402
3.7043991 -6.3324966 1.2690557
4.051312 -5.9881339 1.2784927
4.3883176 -5.6501412 1.2872993
4.7178917 -5.3222022 1.2961822
5.0191517 -4.9755468 1.2994151
5.0162854 -4.3162885 1.4578236
5.0186415 -3.7335901 1.3817997
5.0168967 -3.2397542 1.5147634
5.1441731 -2.898602 1.4819385
5.3745217 -2.6658258 1.4832366
3.0139852 -7.1781197 1.536738
3.3446832 -6.7066112 1.5238551
3.6999493 -6.3513942 1.529848
4.0469193 -6.0067959 1.536006
4.3839808 -5.6685653 1.5415325
4.7136078 -5.3403997 1.547279
5.0149379 -4.993443 1.5463766
5.012382 -4.3328619 1.686534
5.0131884 -3.7567458 1.7013384
5.011795 -3.2614226 1.8137699
5.1392508 -2.9195118 1.7704644
5.369658 -2.6864879 1.7683407
3.0093575 -7.1977739 1.8079399
3.3401752 -6.7257595 1.7880703
3.6954999 -6.3702936 1.7906411
4.0425253 -6.0254569 1.793519
4.379643 -5.6869898 1.7957667
4.70718 -5.3676934 1.9239242
5.0086169 -5.0202889 1.9168192
5.0084801 -4.3494368 1.9152449
5.0077376 -3.779902 2.0208774
5.0066929 -3.2830906 2.1127758
5.1343269 -2.9404206 2.0589905
5.3631716 -2.7140355 2.1484783
3.0047302 -7.2174273 2.0791414
3.3356671 -6.7449055 2.052285
3.6910496 -6.3891935 2.0514336
4.0381312 -6.0441184 2.0510325
4.3731346 -5.7146258 2.1771169
4.7007551 -5.39499 2.3005691
5.002296 -5.0471334 2.287262
5.0026269 -4.374299 2.2583106
5.0022845 -3.8030586 2.3404157
5.0015917 -3.30476 2.411782
5.1294045 -2.9613295 2.3475165
5.3583083 -2.7346969 2.4335833
3.000103 -7.2370825 2.3503432
3.3311596 -6.7640543 2.3164997
3.6865997 -6.408093 2.3122265
4.0315404 -6.0721107 2.4373021
4.3666286 -5.7422619 2.5584671
4.6964703 -5.4131861 2.551666
4.9980822 -5.0650315 2.5342233
4.9967728 -4.399159 2.6013758
4.9968333 -3.8262153 2.659955
4.99649 -3.3264279 2.7107878
5.1228404 -2.9892087 2.7322173
5.3534427 -2.755358 2.7186861
2.9954753 -7.2567348 2.6215444
3.3266516 -6.7832017 2.5807147
3.6799245 -6.4364414 2.7034152
4.0249496 -6.1001034 2.8235717
4.3622909 -5.7606854 2.812701
4.6921864 -5.4313836 2.8027627
4.9938684 -5.0829282 2.7811854
4.9928708 -4.4157348 2.8300867
4.9931979 -3.8416538 2.8729804
4.9930878 -3.3408742 2.9101255
2.990849 -7.2763882 2.892746
3.3198891 -6.8119221 2.977037
3.6732516 -6.4647899 3.0946043
4.0205555 -6.1187649 3.0810847
4.3579535 -5.77911 3.0669343
4.6879015 -5.4495797 3.0538597
4.9875488 -5.1097732 3.1516275
4.9870167 -4.4405956 3.173152
4.989563 -3.857091 3.0860064
2.9862208 -7.2960415 3.1639471
3.3131266 -6.8406434 3.3733582
3.6688008 -6.4836898 3.3553963
4.0161619 -6.1374273 3.3385978
4.3536153 -5.7975345 3.3211682
4.6836166 -5.4677758 3.3049562
4.9812274 -5.1366186 3.5220699
2.9815936 -7.3156967 3.4351492
3.3086185 -6.8597903 3.6375732
3.6643515 -6.5025897 3.6161895
4.0117683 -6.1560884 3.5961113
4.349278 -5.815958 3.575402
4.6793332 -5.4859734 3.5560529
2.9769669 -7.335351 3.7063501
1.8797485 -9.1109571 -1.0500073
2.253268 -8.7706432 -1.0246114
2.6267855 -8.4303312 -0.99921536
3.0003033 -8.0900192 -0.97381943
3.0478075 -6.7969255 -0.83658683
3.3744421 -6.4756346 -0.81183827
3.7014866 -6.1598949 -0.78769678
4.0252824 -5.8411918 -0.76314133
4.3475628 -5.5238676 -0.73868859
4.6683297 -5.2079248 -0.71433902
1.2579308 -4.9866476 -0.75933057
4.9688144 -4.8689961 -0.68692279
1.4818907 -4.7825975 -0.74410325
1.7058494 -4.5785475 -0.72887599
1.9298087 -4.3744979 -0.7136488
2.265748 -4.0684237 -0.69080782
4.9723644 -4.1964302 -0.61491692
2.6016874 -3.7623496 -0.6679669
7.8560395 -3.6659579 -0.64367223
2.8256466 -3.5583005 -0.6527397
3.0496061 -3.3542514 -0.63751239
4.9759636 -3.6067445 -0.55179876
1.0718729 -3.1491842 -0.62964875
3.273566 -3.1502013 -0.62228519
4.9810653 -3.0867696 -0.49619952
8.229557 -3.3256457 -0.61827636
1.3918149 -2.8576853 -0.60789549
3.4975252 -2.9461513 -0.60705775
3.7214842 -2.7421026 -0.59183067
5.1492062 -2.7558777 -0.46571481
8.603075 -2.9853339 -0.59288037
1.7117568 -2.566186 -0.5861423
3.9454436 -2.5380533 -0.57660341
5.4039326 -2.506027 -0.44649056
8.976593 -2.6450222 -0.5674845
0.84391022 -2.2405837 -0.56583858
0.96828973 -2.1272614 -0.55738193
1.9517136 -2.3475616 -0.56982732
2.1116846 -2.2018123 -0.55895066
4.1694031 -2.3340032 -0.56137598
9.3501101 -2.3047092 -0.54208851
1.0926697 -2.0139382 -0.54892504
1.2170492 -1.9006157 -0.54046839
2.2716558 -2.0560627 -0.54807413
2.4316268 -1.9103134 -0.53719753
4.393363 -2.1299546 -0.54614884
4.6173224 -1.9259046 -0.53092152
9.72363 -1.9643967 -0.51669258
0.80072868 -1.5703601 -0.5184173
1.4036192 -1.7306321 -0.52778327
1.5901889 -1.5606482 -0.51509815
2.5915973 -1.7645631 -0.52632087
2.7515686 -1.618814 -0.51544428
4.8412809 -1.721855 -0.5156942
10.097147 -1.6240851 -0.4912968
1.0551203 -1.3385836 -0.50112092
1.7145689 -1.4473259 -0.50664145
1.9011385 -1.2773424 -0.49395642
2.9115396 -1.4730641 -0.50456762
3.0715103 -1.3273141 -0.493691
5.0652404 -1.5178059 -0.50046706
5.2891998 -1.3137565 -0.4852398
10.470665 -1.2837716 -0.46590072
0.77105224 -1.1075169 -0.48587257
0.94332898 -0.95055568 -0.47415939
1.3603904 -1.0604521 -0.48036528
2.0877082 -1.1073582 -0.48127133
2.2120881 -0.9940356 -0.47281456
3.2314813 -1.1815646 -0.4828144
3.3914521 -1.0358154 -0.47193781
5.5131598 -1.109707 -0.47001249
0.60069352 -0.62738061 -0.45246905
0.74905276 -0.76684475 -0.46169737
1.1156052 -0.79359448 -0.46244603
1.2878817 -0.63663363 -0.4507328
1.6656604 -0.78232056 -0.45960963
2.336468 -0.88071376 -0.46435782
2.5230377 -0.71072966 -0.45167273
3.5514231 -0.89006549 -0.46106118
3.7113943 -0.74431604 -0.45018455
5.8490992 -0.80363297 -0.44717166
0.57176644 -0.43553224 -0.4387998
0.7303158 -0.43654686 -0.43844387
1.0241022 -0.46132052 -0.43913329
1.3561246 -0.45421878 -0.43753582
1.5893655 -0.36195156 -0.43023449
1.9709305 -0.50418884 -0.43885392
2.7096076 -0.54074621 -0.4389877
2.8339872 -0.42742383 -0.43053097
3.8713653 -0.59856659 -0.43930799
4.0313368 -0.45281693 -0.42843142
6.1850386 -0.49755877 -0.42433071
0.5539608 -0.16363069 -0.41946065
0.74036419 -0.13183612 -0.41657731
1.048128 -0.14698833 -0.41683546
1.3524801 -0.14840354 -0.41584074
1.6853431 -0.15426785 -0.41515189
1.8908494 -0.087269656 -0.40973628
2.2762005 -0.22605732 -0.41809827
2.4797146 -0.040636137 -0.40426111
2.9583669 -0.3141014 -0.42207417
3.144937 -0.14411753 -0.40938911
4.1913075 -0.30706748 -0.41755474
4.3512778 -0.16131788 -0.40667814
6.4089971 -0.29350933 -0.40910351
0.5418756 0.13918316 -0.39819664
0.75966096 0.16352838 -0.39565763
1.0458996 0.13037357 -0.39695391
1.3350648 0.15080687 -0.39472032
1.6316024 0.14709997 -0.39396557
1.957136 0.093362756 -0.39667237
2.1923332 0.18741223 -0.38923803
2.632349 0.098429658 -0.39388329
2.7849844 0.23749548 -0.38350549
3.4558861 0.13918877 -0.38824728
4.5112486 -0.015567956 -0.39580145
4.6712213 0.13018161 -0.38492489
0.58525491 0.29226059 -0.38710448
0.79393506 0.40768895 -0.37828752
1.0666754 0.45485875 -0.37397021
1.3671945 0.44192454 -0.37376544
1.673584 0.43741164 -0.3732675
1.9424952 0.43035424 -0.37282765
2.2658861 0.43478435 -0.37140152
2.5368862 0.50133455 -0.36581141
2.9376194 0.37656119 -0.37312761
3.0902545 0.51562709 -0.36274979
3.7046463 0.36583361 -0.37133381
0.91026127 0.58837366 -0.36500689
1.1068914 0.71015853 -0.35577247
1.3670162 0.74056697 -0.35270914
1.6715025 0.73457658 -0.35197628
1.9890773 0.72485763 -0.3518168
2.3164377 0.66119939 -0.35512903
2.6660933 0.61905533 -0.35702646
1.3299135 0.91654068 -0.34037918
1.5433512 0.89279658 -0.34144977
3.0469589 -6.8147488 -0.58528483
3.3735962 -6.4934187 -0.56110686
3.7006423 -6.1776476 -0.53739327
4.0244398 -5.8589039 -0.51340818
4.3467226 -5.5415406 -0.48952609
4.6674905 -5.2255569 -0.46574691
4.9679804 -4.8865175 -0.43989956
4.9715848 -4.2128077 -0.38401008
4.9752316 -3.6221209 -0.33501166
4.9803758 -3.1012657 -0.29182056
5.148531 -2.7700703 -0.26561463
5.4032593 -2.5201895 -0.24681816
0.32535511 1.1594907 0.097329512
3.0461111 -6.8325729 -0.33398294
3.3727503 -6.5112019 -0.31037536
3.6997979 -6.1954017 -0.28708962
4.0235963 -5.8766174 -0.26367512
4.3458819 -5.5592136 -0.24036354
4.6666517 -5.2431889 -0.21715485
4.9671469 -4.904038 -0.19287634
4.9708056 -4.2291856 -0.15310328
4.9744997 -3.6374969 -0.11822448
4.9796858 -3.1157625 -0.087441683
5.1478548 -2.7842629 -0.065514416
5.402585 -2.5343518 -0.047145747
3.0452631 -6.8503976 -0.082681023
3.3719041 -6.528985 -0.059643868
3.6989524 -6.2131543 -0.036786065
4.0227542 -5.8943305 -0.013942017
4.3450403 -5.5768857 0.0087990696
4.6658125 -5.2608199 0.031437263
4.9663129 -4.9215584 0.05414696
4.9696369 -4.2537513 0.19325702
4.9734025 -3.6605611 0.20695633
4.9786515 -3.1375058 0.21912679
5.146842 -2.8055518 0.23463604
5.4015741 -2.5555944 0.25236282
3.0439904 -6.8771334 0.29427195
3.3706343 -6.5556607 0.31645331
3.6976852 -6.2397847 0.33866921
4.0214896 -5.9208994 0.36065766
4.3437791 -5.6033936 0.38254309
4.6645541 -5.2872686 0.4043254
4.9650631 -4.9478397 0.42468187
4.9684687 -4.2783184 0.5396173
4.9723053 -3.6836252 0.53213698
4.9776158 -3.1592495 0.5256952
5.1458297 -2.8268409 0.53478622
5.4005632 -2.576838 0.5518713
3.0427186 -6.9038692 0.67122495
3.3693655 -6.5823359 0.69255042
3.6964178 -6.2664146 0.71412444
4.020225 -5.9474673 0.73525727
4.3425174 -5.6299024 0.7562868
4.6632953 -5.3137164 0.77721334
4.9638128 -4.9741206 0.79521656
4.9676881 -4.2946963 0.77052408
4.9712081 -3.7066896 0.85731781
4.9765825 -3.1809938 0.83226347
5.1448174 -2.8481295 0.83493668
5.3995523 -2.5980811 0.85137987
3.0418708 -6.9216938 0.92252684
3.3685195 -6.6001196 0.94328195
3.695574 -6.2841682 0.96442801
4.019383 -5.9651809 0.98499048
4.3416772 -5.6475749 1.0054498
4.6624565 -5.3313479 1.0258058
4.9629793 -4.991642 1.04224
4.9669094 -4.3110728 1.0014311
4.9701109 -3.7297537 1.1824985
4.9755478 -3.2027383 1.1388321
5.1438041 -2.8694181 1.135087
5.3985424 -2.6193249 1.1508884
3.0410225 -6.9395175 1.1738286
3.3676729 -6.6179042 1.1940136
3.6947293 -6.3019209 1.2147319
4.0185404 -5.9828949 1.2347238
4.3408356 -5.6652474 1.2546122
4.6616187 -5.3489799 1.2743981
4.9621453 -5.0091619 1.2892634
4.9657407 -4.3356395 1.3477912
4.969378 -3.7451289 1.3992854
4.9745135 -3.2244821 1.4454004
5.1427917 -2.8907077 1.4352374
5.3975306 -2.640568 1.4503971
3.0401738 -6.9573412 1.4251306
3.3668268 -6.6356878 1.4447448
3.6938839 -6.319675 1.4650352
4.0176973 -6.0006075 1.4844564
4.3399954 -5.6829205 1.5037748
4.6607795 -5.3666124 1.5229899
4.9613118 -5.0266824 1.5362865
4.964572 -4.3602052 1.6941516
4.9682808 -3.768194 1.7244663
4.9734788 -3.2462258 1.7519689
5.1417785 -2.9119964 1.735388
5.3965197 -2.6618106 1.7499056
3.0389025 -6.9840784 1.8020841
3.3655577 -6.6623631 1.820842
3.6926169 -6.3463044 1.8404908
4.0164328 -6.0271759 1.8590564
4.3387346 -5.7094288 1.8775188
4.6595211 -5.3930597 1.8958782
4.960062 -5.0529637 1.9068216
4.9637923 -4.3765826 1.9250585
4.9671845 -3.7912583 2.0496476
4.9724436 -3.2679706 2.0585377
5.1407652 -2.933285 2.0355382
5.3955097 -2.6830542 2.0494146
3.0376306 -7.0108147 2.1790369
3.3642881 -6.6890378 2.1969399
3.6913502 -6.3729348 2.2159464
4.0151687 -6.0537457 2.2336562
4.3374734 -5.7359366 2.2512629
4.6582613 -5.419508 2.2687666
4.9588108 -5.0792446 2.2773561
4.9626231 -4.4011493 2.2714188
4.9664521 -3.8066339 2.2664342
4.9714084 -3.2897139 2.3651059
5.1397524 -2.9545739 2.3356886
5.3944988 -2.7042975 2.3489232
3.0367825 -7.0286384 2.4303384
3.3634422 -6.7068224 2.4476712
3.6905048 -6.3906879 2.4662502
4.0143261 -6.0714579 2.4833889
4.3366323 -5.7536092 2.5004251
4.657424 -5.4371395 2.5173583
4.9579763 -5.096765 2.5243797
4.9614549 -4.4257159 2.617779
4.9653549 -3.8296983 2.5916147
4.9703746 -3.3114581 2.671674
5.1387391 -2.975863 2.6358387
5.3934884 -2.7255406 2.6484318
3.0359333 -7.0464625 2.6816409
3.3625958 -6.7246051 2.6984022
3.6896605 -6.4084415 2.7165534
4.0134826 -6.08917 2.7331221
4.3357916 -5.7712827 2.7495878
4.6565843 -5.4547725 2.7659512
4.9571428 -5.1142855 2.7714028
4.9606748 -4.4420938 2.8486862
4.9642572 -3.8527622 2.9167953
4.9693398 -3.3332024 2.9782429
5.1377268 -2.9971514 2.9359896
5.3924775 -2.7467847 2.9479401
3.0350862 -7.0642862 2.9329424
3.3617504 -6.7423887 2.9491334
3.6888163 -6.4261947 2.9668574
4.0126395 -6.1068845 2.9828551
4.3349495 -5.7889533 2.9987502
4.655745 -5.472404 3.0145428
4.9558935 -5.1405668 3.1419377
4.9595065 -4.4666595 3.1950459
4.9635262 -3.8681383 3.1335828
3.0342376 -7.0821114 3.1842439
3.3604805 -6.7690654 3.3252308
3.6875489 -6.4528246 3.3423126
4.0113764 -6.1334538 3.357455
4.3336878 -5.8154626 3.372494
4.6544871 -5.4988518 3.3874307
4.9546418 -5.1668472 3.5124726
3.0333898 -7.0999351 3.4355459
5.3527517 -4.8828726 -0.60962307
4.4523234 -4.0980587 -0.68665427
4.4887609 -3.7976618 -0.66516429
8.0443201 -3.3169522 -0.58898592
4.5251994 -3.4972663 -0.64367449
8.105092 -2.8159556 -0.55314553
4.5616364 -3.1968715 -0.62218493
4.5980749 -2.8964758 -0.60069519
8.1658621 -2.3149567 -0.51730502
3.0975006 -2.931787 -0.62122339
4.6345124 -2.5960798 -0.57920545
3.1365409 -2.6099348 -0.59819859
4.6709504 -2.2956848 -0.55771559
8.2266331 -1.8139597 -0.48146456
2.3459373 -2.2848053 -0.585105
3.1755817 -2.2880821 -0.5751738
4.7073884 -1.9952888 -0.5362258
8.287405 -1.3129615 -0.44562405
2.3661885 -2.1178482 -0.57316118
3.2146225 -1.9662302 -0.55214912
4.7438264 -1.6948938 -0.51473612
1.8649304 -1.8707693 -0.56151849
2.3965662 -1.8674123 -0.5552454
3.2536631 -1.6443775 -0.52912432
4.7802644 -1.3944982 -0.49324632
8.3481741 -0.81196386 -0.40978354
1.5342432 -1.5860897 -0.54572612
1.898042 -1.5977978 -0.54199058
2.4269438 -1.6169769 -0.53732979
2.4471958 -1.4500202 -0.52538598
3.2796893 -1.4298092 -0.51377451
3.3057168 -1.2152411 -0.49842471
4.8167014 -1.0941025 -0.47175652
8.408946 -0.31096596 -0.37394312
1.2968068 -1.3264226 -0.53029609
1.5622724 -1.3550165 -0.52919561
1.9394307 -1.2565833 -0.51758069
2.4765155 -1.1991776 -0.50729316
3.331744 -1.0006729 -0.48307484
4.8531404 -0.79370713 -0.45026684
1.0367727 -1.1116328 -0.51845294
1.277071 -1.0671462 -0.51240402
1.6043161 -1.0084062 -0.50439978
1.9725418 -0.98361182 -0.49805278
2.5159383 -0.86504722 -0.48324215
3.3707843 -0.67882055 -0.46005005
4.8895779 -0.49331141 -0.42877704
8.4697161 0.19003212 -0.33810258
0.69323516 -0.81503773 -0.50169808
0.90965664 -0.86854869 -0.50277448
1.2215649 -0.82144392 -0.49592048
1.5514812 -0.70494395 -0.48373926
2.0056534 -0.71064025 -0.47852492
2.5462928 -0.61480206 -0.46534008
2.566529 -0.44797194 -0.45340526
3.4098253 -0.35696787 -0.43702531
4.9260159 -0.1929158 -0.40728724
0.5854975 -0.60400891 -0.48834783
0.86470342 -0.58222246 -0.48319274
1.1266384 -0.50489897 -0.47486871
1.4000255 -0.47548175 -0.46942133
1.6743891 -0.43072236 -0.46307325
2.0470424 -0.36942607 -0.45411497
2.596884 -0.1977272 -0.43550324
3.4358518 -0.14239979 -0.4216755
4.9624538 0.10747969 -0.3857975
0.57103479 -0.33172381 -0.46941268
0.8069098 -0.2545594 -0.46102381
1.1292273 -0.25363272 -0.45720148
1.3885156 -0.14839113 -0.44667792
1.7164328 -0.084112048 -0.43827736
2.0884316 -0.028211713 -0.42970514
2.6272383 0.052517772 -0.41760117
3.4748929 0.17945254 -0.39865077
3.7146635 0.2978431 -0.28462049
0.57528782 -0.041243076 -0.44895589
0.74335384 0.026014447 -0.44224918
1.0307829 0.05246985 -0.4367848
1.3695096 0.11690021 -0.42835557
1.7514691 0.2047298 -0.41761416
2.1132653 0.17651689 -0.41505927
2.1298206 0.31300259 -0.40529525
2.6575933 0.30276275 -0.39969903
3.4463263 0.49159527 -0.36959434
0.57785344 0.17333734 -0.43380862
0.69915676 0.30798376 -0.42305315
0.99910533 0.36080146 -0.41550612
1.2728752 0.43244243 -0.40745378
1.5751097 0.41364479 -0.40502828
1.7935128 0.55134022 -0.39281827
2.1629324 0.5859741 -0.3857674
2.6980658 0.63642299 -0.37582958
3.1109111 0.72024775 -0.31646663
0.76562309 0.50441575 -0.40853828
0.97628665 0.59314394 -0.39945209
1.2550591 0.68793118 -0.38971537
1.5867689 0.80617082 -0.35519332
1.7707419 0.77814472 -0.34571028
2.1840003 0.85206401 -0.32655138
2.7796025 0.89923656 -0.31498682
1.5737455 0.92260659 -0.28544521
5.3503375 -4.8969474 -0.40881121
5.2656054 -4.4304113 -0.47346294
5.1858377 -3.9930277 -0.43947107
5.1124268 -3.5762382 -0.40713257
5.0579572 -3.1857915 -0.37712896
5.2352591 -2.9285948 -0.36170205
5.4229836 -2.6584735 -0.34553069
3.712359 0.28440833 -0.092936464
3.4434783 0.47500193 -0.13284162
3.1083453 0.70529401 -0.10310385
1.6541765 0.85217154 -0.098372802
1.7462165 0.78957117 -0.10971548
2.1812472 0.83602035 -0.097642854
2.8284535 0.89822066 -0.078222655
1.5713726 0.90877831 -0.088145345
5.3479218 -4.9110217 -0.20799935
5.2608843 -4.4579196 -0.080966853
5.1812201 -4.0199366 -0.055532306
5.1079054 -3.6025867 -0.031180583
5.053515 -3.2116809 -0.0077375919
5.2307034 -2.9551444 0.017102256
5.4183083 -2.6857226 0.043257177
3.7092853 0.26649582 0.16264237
3.4392076 0.45011222 0.22228746
-0.29462951 -0.045672774 -0.035841279
3.1044962 0.682863 0.21694021
1.6506128 0.83140481 0.19792463
1.74246 0.76768005 0.20262696
2.1775765 0.81462896 0.20756842
2.8249559 0.87784374 0.21251254
1.5679828 0.8890239 0.19371159
5.3442998 -4.9321337 0.093218639
5.2573442 -4.4785509 0.21340518
5.1777568 -4.0401182 0.23242183
5.1045141 -3.6223488 0.25078332
5.0501823 -3.2310982 0.26930588
5.2272863 -2.9750562 0.30120546
5.4148011 -2.7061591 0.33484817
3.7054429 0.24410474 0.48211586
3.435648 0.42937052 0.51822847
3.0805175 0.67622995 0.51246309
1.6470494 0.81063831 0.49422216
1.7387035 0.74578881 0.51496941
2.1739056 0.79323757 0.51277989
2.8214598 0.85746706 0.5032478
1.5642539 0.86729395 0.5037542
5.3406763 -4.9532447 0.39443654
5.2538047 -4.4991827 0.50777727
5.174294 -4.0602999 0.52037591
5.1011229 -3.6421108 0.53274727
5.0468512 -3.2505155 0.54634923
5.2238703 -2.9949679 0.58530885
5.4112945 -2.7265959 0.62643909
3.7016001 0.22171378 0.80158955
3.4320886 0.40862894 0.81416923
3.0974605 0.64186466 0.8019048
1.6434858 0.78987181 0.79051965
1.7353222 0.72608674 0.79607761
2.1702349 0.77184618 0.81799126
2.8179634 0.83709037 0.79398304
1.5605251 0.84556377 0.813797
5.3370538 -4.9743562 0.69565463
5.2502637 -4.519815 0.80214942
5.1708302 -4.080482 0.80832988
5.0977316 -3.6618729 0.81471139
5.043519 -3.2699323 0.82339263
5.2204533 -3.0148807 0.86941236
5.4077873 -2.7470326 0.91802996
3.6985273 0.20380116 1.0571682
3.4285293 0.38788724 1.11011
3.0936115 0.61943364 1.121949
1.6413476 0.77741182 0.96829802
1.7330685 0.71295214 0.98348302
2.1665645 0.75045514 1.1232023
2.8144667 0.81671345 1.0847181
5.3334312 -4.9954677 0.9968726
5.2467227 -4.5404463 1.0965213
5.167367 -4.1006641 1.096284
5.0943403 -3.6816349 1.0966752
5.0401869 -3.2893496 1.1004363
5.2170362 -3.0347924 1.1535156
5.4042802 -2.7674689 1.2096207
3.694684 0.18141019 1.3766418
3.4249699 0.36714578 1.4060512
3.0897624 0.59700274 1.441993
2.8109698 0.79633701 1.3754535
5.3298087 -5.0165792 1.2980903
5.2431831 -4.5610781 1.3908933
5.1639037 -4.1208463 1.3842381
5.089819 -3.7079835 1.472627
5.0357442 -3.3152394 1.4698277
5.2136197 -3.0547042 1.4376187
5.400773 -2.7879057 1.5012118
3.6908426 0.15901923 1.6961154
3.4214106 0.34640408 1.7019918
3.1208084 0.55609047 1.6909235
2.8086388 0.78275263 1.5692767
5.3261847 -5.0376902 1.599308
5.2396421 -4.5817094 1.6852655
5.1604409 -4.1410279 1.6721921
5.0864291 -3.7277465 1.7545907
5.0324121 -3.3346562 1.7468711
5.2102022 -3.0746164 1.7217218
5.3972669 -2.8083422 1.7928028
3.687768 0.14110649 1.951694
3.4192755 0.33395922 1.8795567
5.3225627 -5.0588021 1.9005263
5.2361026 -4.6023407 1.9796376
5.1569777 -4.1612091 1.960146
5.0830359 -3.747508 2.0365551
5.0290799 -3.354073 2.0239146
5.2056465 -3.1011651 2.1005261
5.3937597 -2.828779 2.0843935
5.3189397 -5.0799131 2.2017436
5.2325611 -4.622973 2.2740095
5.1535134 -4.1813912 2.2480998
5.0796461 -3.7672701 2.3185186
5.0246367 -3.3799629 2.393306
5.2022295 -3.1210771 2.3846295
5.3902526 -2.8492162 2.3759849
5.3153172 -5.1010246 2.5029616
5.2290201 -4.6436038 2.5683813
5.1488972 -4.2083006 2.6320386
5.0762548 -3.7870326 2.6004832
5.021306 -3.3993807 2.6703494
5.1988125 -3.1409893 2.6687324
5.3867455 -2.869653 2.6675756
5.3116946 -5.1221371 2.8041799
5.2266612 -4.6573586 2.7646294
5.3844075 -2.8832774 2.8619697
8.5624857 -3.9194438 -0.6331836
8.5406713 -3.4148352 -0.60359514
8.518856 -2.9102278 -0.57400668
5.0137334 -3.2310419 -0.60191941
5.0458422 -2.9558022 -0.58919895
8.4970407 -2.4056189 -0.54441833
5.0327625 -2.6532419 -0.57145774
8.4752264 -1.901011 -0.51482987
5.0196819 -2.3506818 -0.55371678
3.5250008 -2.2184715 -0.55120099
5.0066018 -2.0481215 -0.53597569
8.4534101 -1.396403 -0.48524138
3.5109942 -1.8944914 -0.53220391
4.9935212 -1.7455612 -0.51823461
2.6789629 -1.7262425 -0.52548528
3.5016572 -1.6785049 -0.51953936
4.980442 -1.4430007 -0.50049353
8.4315958 -0.8917945 -0.45565298
2.1427262 -1.4812697 -0.51302218
2.6680665 -1.4741939 -0.51070607
3.4876511 -1.3545249 -0.50054228
4.9673605 -1.1404407 -0.48275259
8.4097795 -0.38718647 -0.42606452
1.7700136 -1.2541308 -0.50121999
2.1338115 -1.2750652 -0.50093114
2.6608019 -1.3061618 -0.5008533
2.6535378 -1.1381295 -0.49100044
3.4736447 -1.0305449 -0.48154518
4.9542813 -0.83788055 -0.46501145
1.2854863 -0.95887816 -0.48541334
1.4933817 -1.0364714 -0.48935261
1.7599519 -1.0213919 -0.487573
2.1219254 -1.000127 -0.48480973
2.6426413 -0.88608116 -0.47622117
3.4596384 -0.7065649 -0.46254811
4.9412003 -0.53532016 -0.44727042
8.3879662 0.11742215 -0.396476
0.98463011 -0.74049079 -0.47366384
1.1974721 -0.77988875 -0.47528538
1.4824839 -0.78439099 -0.47457138
1.747375 -0.73046863 -0.47051427
2.1070678 -0.65645337 -0.46465793
2.6281128 -0.55001676 -0.45651558
3.445632 -0.38258523 -0.44355115
4.9281192 -0.2327598 -0.42952928
0.64428091 -0.52270216 -0.46220818
0.8744911 -0.55650163 -0.46332911
1.1741711 -0.50617093 -0.45928809
1.4694062 -0.48189458 -0.45683411
1.7347977 -0.43954542 -0.45345566
2.0922101 -0.31278029 -0.44450614
2.6135838 -0.21395233 -0.43680993
3.4362946 -0.16659831 -0.43088636
4.915041 0.069800526 -0.41178825
0.60149717 -0.31577873 -0.45020214
0.80314052 -0.26961496 -0.44674918
1.1560702 -0.20059317 -0.44135764
1.4563287 -0.17939816 -0.4390969
1.7197053 -0.090437219 -0.4329851
2.0803242 -0.037841696 -0.42838475
2.6026874 0.038095959 -0.42203072
3.4222882 0.15738156 -0.41188934
3.7110617 0.28086555 -0.30659795
0.58294272 -0.014837097 -0.43257275
0.75218785 0.022127543 -0.42981532
1.0157027 0.05426348 -0.42690173
1.3412988 0.11574663 -0.42209581
1.7071279 0.20048608 -0.41592637
2.0684381 0.23709686 -0.4122633
2.5917909 0.29014432 -0.40725151
3.4200923 0.47944745 -0.33346707
0.54140258 0.27832219 -0.41552064
0.70141876 0.31790906 -0.41258344
1.0025948 0.35746318 -0.40912309
1.3134392 0.42221665 -0.40416911
1.6945508 0.49140948 -0.39886776
2.0595229 0.44330075 -0.4001722
2.0535803 0.58077025 -0.39211145
2.5772622 0.62620872 -0.38754579
3.0794513 0.73115367 -0.34319806
0.53191173 0.49785745 -0.40264794
0.68126202 0.59613395 -0.39632192
0.96465921 0.68297249 -0.39010468
1.2646869 0.70504314 -0.38769418
1.5833875 0.82832575 -0.35685304
1.8520105 0.78184456 -0.31120735
2.047637 0.71823949 -0.38405073
2.5663655 0.8782571 -0.37276667
2.7722967 0.93774271 -0.29821995
0.95276427 0.88689387 -0.3781696
1.2746753 1.0692933 -0.32682806
1.4450307 0.99915892 -0.32118174
5.0128088 -3.2458105 -0.35077763
5.2453408 -2.9255948 -0.33911422
3.7103434 0.26938972 -0.11144382
3.431232 0.46683183 -0.092055008
3.0786393 0.71818995 -0.1227442
1.6458457 0.86802369 -0.11371839
1.8512321 0.76941186 -0.099781394
2.7715561 0.92591643 -0.097106695
1.3079371 1.1069106 -0.088574305
1.4636964 0.99667042 -0.09245798
5.0115752 -3.2655013 -0.015921801
5.2440495 -2.9462256 0.011727884
3.7093854 0.25408861 0.14876167
3.4303384 0.45256305 0.1505941
-0.28710887 -0.026309196 -0.013007
3.0774214 0.69874465 0.20793656
1.6446683 0.84922266 0.2060075
1.8501935 0.75283486 0.18211974
2.7704456 0.90817696 0.20456326
1.3068507 1.0895561 0.20654932
1.4626247 0.97955316 0.19863173
5.0103421 -3.2851927 0.3189339
5.2430797 -2.9616985 0.27485943
3.7081873 0.23496214 0.47401848
3.4292216 0.43472722 0.45390546
3.0547473 0.69602758 0.51365805
1.6380024 0.83530182 0.51007771
1.8491557 0.73625797 0.46402091
2.7693341 0.89043748 0.50623322
1.312165 1.0678849 0.4987897
1.457734 0.96425134 0.50449932
5.0094166 -3.2999604 0.57007587
5.2421112 -2.9771719 0.53799105
3.7069898 0.21583578 0.7992754
3.4281049 0.41689116 0.75721693
3.0968487 0.64960748 0.78403044
1.6480373 0.81049997 0.7971698
1.8479879 0.71760893 0.78115964
2.7682235 0.87269807 0.80790293
1.307934 1.0535907 0.78001738
1.4603758 0.94364506 0.80926895
5.0084925 -3.3147292 0.82121766
5.2408195 -2.997803 0.88883305
3.7060313 0.20053455 1.0594808
3.4269876 0.39905527 1.0605283
3.0741742 0.64689034 1.089752
1.6417248 0.80221957 1.0053221
1.8469496 0.70103198 1.0630608
2.7671125 0.85495871 1.1095731
1.5011739 0.9044233 0.97407472
5.0072589 -3.3344193 1.1560731
5.2134209 -3.0536439 1.2004597
3.7048333 0.18140809 1.3847377
3.4258707 0.38121924 1.3638396
3.0515201 0.64449227 1.3900495
2.7660017 0.83721924 1.4112428
5.0060263 -3.3541114 1.4909292
5.2649889 -2.9935393 1.4543113
3.7036357 0.16228168 1.7099944
3.4247534 0.36338329 1.6671507
3.0935814 0.59743416 1.6712697
2.7652612 0.82539308 1.6123562
5.0047922 -3.3738005 1.8257847
5.2375894 -3.0493801 1.765938
3.702678 0.14698057 1.9702001
3.4238603 0.3491146 1.9098003
5.0038681 -3.3885694 2.0769267
5.2102084 -3.1049557 2.0730453
5.0029426 -3.4033372 2.3280687
5.2353334 -3.0854044 2.3785555
5.3132548 -2.9861281 2.6042521
0.18158114 -9.2186136 -1.1290594
0.60654414 -8.9453888 -1.1020103
1.0315055 -8.6721649 -1.0749609
1.4564687 -8.398942 -1.0479119
1.8814301 -8.1257181 -1.0208626
2.3063922 -7.8524942 -0.99381357
2.731355 -7.5792704 -0.96676439
3.0556302 -7.001255 -0.90407842
3.3852575 -6.5343008 -0.85408014
3.7399986 -6.181313 -0.8172881
4.0864668 -5.838851 -0.78161472
4.4230266 -5.502759 -0.74657208
4.7521725 -5.1766376 -0.71259338
0.25523952 -5.0492444 -0.82540548
0.51004511 -4.8854194 -0.80918688
5.0528693 -4.832375 -0.67628038
0.76484966 -4.7215967 -0.79296833
1.0196548 -4.5577731 -0.77674979
1.4018626 -4.3120379 -0.75242203
1.7840698 -4.0663033 -0.72809422
2.0388749 -3.9024801 -0.71187568
5.051414 -4.1671214 -0.60057259
8.2558622 -4.0273643 -0.61512506
2.2936797 -3.7386565 -0.69565725
8.6808233 -3.7541399 -0.58807588
2.5484846 -3.5748339 -0.67943865
2.8032899 -3.4110093 -0.66322005
5.0513616 -3.5946484 -0.53543502
9.1057863 -3.4809165 -0.56102663
0.28675652 -3.265379 -0.69560975
0.55976182 -3.0898533 -0.67823267
3.0580947 -3.2471867 -0.64700156
3.3128998 -3.0833635 -0.63078308
9.5307474 -3.2076926 -0.53397757
0.83276701 -2.9143281 -0.66085577
1.0147709 -2.7973115 -0.64927101
3.5677047 -2.9195399 -0.61456448
3.82251 -2.7557163 -0.59834594
9.9557123 -2.9344683 -0.50692827
1.1967745 -2.680295 -0.63768637
1.4697797 -2.5047693 -0.62030929
4.0773149 -2.591893 -0.58212745
4.3321204 -2.4280698 -0.56590891
0.30428416 -2.2731798 -0.62327302
0.44579458 -2.1821976 -0.6142658
1.7427847 -2.3292446 -0.60293233
1.924789 -2.2122281 -0.59134769
4.7143278 -2.1823344 -0.54158092
0.58730519 -2.0912151 -0.60525846
0.79957086 -1.954742 -0.59174764
1.0118365 -1.8182685 -0.57823682
2.1067922 -2.0952108 -0.579763
2.2887957 -1.9781945 -0.56817836
2.4707994 -1.8611774 -0.5565936
5.0965352 -1.9365997 -0.51725316
0.31542641 -1.6424963 -0.57734811
0.43119788 -1.5680628 -0.56997913
1.153347 -1.7272866 -0.56922948
1.3656127 -1.5908127 -0.55571878
2.6528032 -1.7441611 -0.54500896
2.9258084 -1.5686362 -0.527632
5.3513408 -1.7727764 -0.50103474
5.6061444 -1.6089523 -0.48481613
0.32312191 -1.207072 -0.54584533
0.60485512 -1.4564121 -0.55892569
0.83639801 -1.3075442 -0.54418784
1.7193887 -1.3633573 -0.5332005
3.1988134 -1.393111 -0.51025492
3.3808172 -1.2760942 -0.49867028
5.8609495 -1.4451289 -0.46859765
6.1157556 -1.281306 -0.45237911
0.51912582 -1.0810542 -0.53336954
0.71512979 -0.9550364 -0.52089375
1.1258268 -1.12146 -0.52576536
1.3573697 -0.97259235 -0.51102746
2.0731649 -1.1359017 -0.5106824
2.3561859 -0.95393753 -0.49266785
3.5628207 -1.1590776 -0.4870857
3.8358259 -0.98355246 -0.46970862
0.33094278 -0.76440501 -0.51362747
0.49861938 -0.77726543 -0.51161754
0.78652227 -0.75064874 -0.50482082
1.1071374 -0.70300031 -0.49594218
1.4731413 -0.89815879 -0.50365847
1.7046845 -0.74929142 -0.48892069
2.6392066 -0.77197301 -0.47465336
2.8514726 -0.63549972 -0.46114248
4.1088314 -0.80802739 -0.45233166
4.2908349 -0.69101083 -0.44074696
0.33652449 -0.44840789 -0.49055457
0.4991096 -0.45344365 -0.48823732
0.82199782 -0.42455471 -0.48063886
1.0930386 -0.39509165 -0.47378218
1.4011431 -0.51397324 -0.4772284
1.646148 -0.35645068 -0.46163374
1.9941132 -0.56320739 -0.4704982
2.225656 -0.4143399 -0.45576042
2.9929826 -0.54451728 -0.45213521
3.2052488 -0.40804422 -0.43862432
4.4728394 -0.57399404 -0.42916226
0.34145358 -0.16935456 -0.47017568
0.50226921 -0.13296461 -0.46473676
0.80357051 -0.13329041 -0.45973152
1.1250533 -0.14144158 -0.45496422
1.4014101 -0.13649559 -0.44982272
1.6943831 -0.11412287 -0.44319195
1.9891548 -0.13591909 -0.43980104
2.2922361 -0.15629518 -0.43601608
2.6308563 -0.15382195 -0.42996907
2.8623996 -0.0049548149 -0.41523123
3.4882693 -0.2260797 -0.42060983
0.34647089 0.11454916 -0.44961721
0.51000994 0.16270554 -0.44335771
0.80214196 0.16323197 -0.43820781
1.118489 0.17202783 -0.43214327
1.4106934 0.16003859 -0.42820644
1.735311 0.16264737 -0.42250574
2.0271261 0.20546728 -0.41432679
2.3321617 0.08461225 -0.41796839
2.5281653 0.2106303 -0.40549248
2.9781704 0.069479108 -0.40786225
0.60922998 0.33838093 -0.42890435
0.84318823 0.42882806 -0.41838312
1.1136531 0.46267188 -0.41128147
1.4145882 0.45977926 -0.40621364
1.7087619 0.4508093 -0.40195888
1.9561977 0.44913173 -0.39800233
2.2394187 0.34195787 -0.40081418
1.1481383 0.66682076 -0.39592475
1.3835287 0.69194174 -0.39010352
1.6742871 0.6308229 -0.38934731
3.0510023 -7.0209084 -0.63287628
3.380749 -6.5534468 -0.58986473
3.7355492 -6.200212 -0.55649471
4.0820723 -5.857512 -0.52410096
4.4186878 -5.5211835 -0.49233788
4.747889 -5.1948333 -0.46149606
5.048655 -4.8502722 -0.42931813
5.0475125 -4.1836958 -0.37186158
5.0477266 -3.610086 -0.32240868
5.0492163 -3.1025162 -0.3789441
5.1753602 -2.7661719 -0.34539479
5.4053411 -2.5349655 -0.32242328
3.046375 -7.0405626 -0.36167413
3.376241 -6.5725937 -0.32564932
3.7310994 -6.2191114 -0.29570144
4.0776787 -5.8761749 -0.2665872
4.4143505 -5.5396066 -0.23810361
4.7436042 -5.2130303 -0.21039878
5.0444422 -4.8681688 -0.18235587
5.0436101 -4.2002707 -0.14315058
5.0440922 -3.6255236 -0.10938232
5.0424132 -3.1314073 0.01973163
5.1687965 -2.7940507 0.039307322
5.3988547 -2.5625136 0.057716094
0.3583532 1.1637249 0.050583459
3.0417485 -7.0602169 -0.090471953
3.371733 -6.5917425 -0.06143409
3.7266498 -6.2380114 -0.034908161
4.0732856 -5.8948355 -0.0090734363
4.4100132 -5.5580306 0.016130611
4.7393203 -5.2312269 0.040698476
5.0402284 -4.8860655 0.064606473
5.0377564 -4.2251315 0.1999159
5.0386405 -3.6486797 0.21015717
5.0373116 -3.1530757 0.31873858
5.1638737 -2.8149595 0.32783395
5.39399 -2.5831747 0.34282058
3.0371208 -7.0798693 0.18073033
3.3672249 -6.610888 0.20278147
3.7222006 -6.2569103 0.22588508
4.0688915 -5.9134974 0.24844031
4.4035063 -5.5856662 0.3974821
4.7328939 -5.258522 0.41734439
5.0339079 -4.9129109 0.43504983
5.0319033 -4.2499933 0.5429824
5.0331888 -3.6718369 0.52969664
5.0322108 -3.1747441 0.61774528
5.1589508 -2.8358684 0.61636066
5.3891263 -2.6038356 0.6279251
3.0324936 -7.0995226 0.45193237
3.3604629 -6.6396098 0.59910429
3.7155259 -6.2852583 0.61707503
4.0623012 -5.9414892 0.63471091
4.3969994 -5.6133018 0.77883333
4.7264671 -5.2858152 0.79399019
5.0275865 -4.9397554 0.80549306
5.0280008 -4.2665658 0.77169353
5.0277367 -3.694993 0.84923601
5.0271087 -3.1964126 0.9167521
5.1540275 -2.8567777 0.90488714
5.3842616 -2.6244967 0.91302949
3.025552 -7.1290035 0.85873562
3.3537009 -6.6683316 0.99542749
3.7088518 -6.3136082 1.0082649
4.0557113 -5.9694824 1.0209817
4.3926616 -5.6317258 1.0330675
4.7221828 -5.3040133 1.0450876
5.0233736 -4.9576535 1.0524554
5.0221481 -4.2914286 1.11476
5.022284 -3.7181492 1.1687753
5.022007 -3.218081 1.215759
5.1491051 -2.8776865 1.1934139
5.3793964 -2.6451573 1.1981342
3.0186117 -7.1584845 1.2655388
3.3491926 -6.6874785 1.259643
3.7044015 -6.3325071 1.2690582
4.0513163 -5.9881434 1.2784953
4.3883238 -5.6501503 1.2873019
4.7178984 -5.3222094 1.2961848
5.0191607 -4.9755507 1.2994175
5.016294 -4.3162899 1.4578263
5.0186505 -3.7335882 1.3818021
5.0169053 -3.239749 1.5147659
5.1441817 -2.8985958 1.4819405
5.3745317 -2.6658177 1.4832383
3.013984 -7.1781378 1.5367409
3.3446846 -6.7066245 1.5238582
3.6999519 -6.3514056 1.5298512
4.0469236 -6.0068059 1.5360091
4.383986 -5.6685734 1.5415359
4.7136145 -5.3404055 1.5472825
5.014946 -4.9934468 1.5463799
5.012392 -4.3328648 1.6865375
5.0131979 -3.7567434 1.7013413
5.0118041 -3.2614183 1.8137727
5.1392593 -2.9195046 1.7704672
5.3696685 -2.6864791 1.7683433
3.0093567 -7.1977911 1.8079435
3.3401768 -6.7257714 1.7880738
3.6955018 -6.3703051 1.7906445
4.0425291 -6.0254669 1.7935228
4.3796487 -5.6869979 1.79577
4.7071872 -5.3677006 1.9239281
5.008626 -5.0202918 1.9168237
5.0084891 -4.3494382 1.9152485
5.0077453 -3.7799006 2.0208812
5.006701 -3.2830858 2.1127789
5.1343365 -2.9404135 2.0589933
5.3631821 -2.7140272 2.1484821
3.0047295 -7.2174435 2.0791459
3.3356683 -6.7449198 2.0522895
3.6910529 -6.3892045 2.0514379
4.0381355 -6.0441284 2.0510368
4.3731413 -5.7146325 2.1771214
4.7007623 -5.3949957 2.3005743
5.0023046 -5.0471368 2.2872665
5.0026355 -4.3743 2.2583144
5.0022931 -3.8030567 2.3404207
5.0016003 -3.3047543 2.4117863
5.1294131 -2.9613228 2.3475199
5.3583169 -2.7346883 2.4335868
3.000102 -7.2370977 2.3503478
3.3311603 -6.7640672 2.3165045
3.6866031 -6.4081044 2.3122311
4.0315447 -6.0721207 2.4373074
4.3666348 -5.7422686 2.5584726
4.6964774 -5.4131913 2.5516715
4.9980912 -5.0650349 2.5342286
4.9967813 -4.3991604 2.6013811
4.9968424 -3.8262129 2.6599598
4.9964991 -3.3264232 2.7107928
5.1228495 -2.989202 2.7322221
5.3534527 -2.7553489 2.7186913
2.9954753 -7.2567511 2.6215501
3.3266521 -6.7832136 2.5807197
3.6799281 -6.4364519 2.7034209
4.0249538 -6.1001129 2.8235781
4.3622975 -5.7606931 2.8127072
4.692193 -5.4313879 2.8027687
4.9938769 -5.082931 2.7811911
4.9928794 -4.4157352 2.8300922
4.993206 -3.8416505 2.8729858
4.9930968 -3.340868 2.910131
2.9908476 -7.2764044 2.8927517
3.3198893 -6.8119345 2.9770432
3.6732535 -6.4648008 3.0946112
4.0205593 -6.1187744 3.0810916
4.3579593 -5.7791166 3.0669415
4.6879086 -5.449585 3.0538661
4.9875565 -5.109777 3.1516345
4.9870257 -4.4405966 3.1731586
4.989572 -3.8570876 3.0860124
2.9862208 -7.2960567 3.1639538
3.3131275 -6.8406553 3.3733661
3.6688037 -6.4836998 3.3554039
4.0161672 -6.137435 3.3386054
4.353621 -5.7975392 3.3211756
4.6836243 -5.4677815 3.3049631
4.981236 -5.136621 3.522078
2.9815938 -7.3157129 3.4351566
3.3086197 -6.8598022 3.6375809
3.6643543 -6.5025997 3.6161969
4.0117726 -6.1560974 3.5961187
4.3492837 -5.8159637 3.5754104
4.6793408 -5.4859781 3.556061
2.9769664 -7.3353653 3.7063582
1.8797452 -9.1109905 -1.0500083
2.2532659 -8.7706776 -1.0246124
2.6267848 -8.4303627 -0.99921608
3.0003052 -8.0900488 -0.97382003
3.0478079 -6.7969465 -0.83658832
3.3744442 -6.4756541 -0.81183958
3.7014902 -6.1599131 -0.78769791
4.0252872 -5.8412089 -0.76314241
4.3475685 -5.5238829 -0.73868966
4.6683364 -5.2079387 -0.71433985
1.2579197 -4.9866576 -0.75933582
4.9688234 -4.8690076 -0.6869235
1.4818803 -4.7826061 -0.7441085
1.7058406 -4.5785561 -0.72888106
1.9298011 -4.3745055 -0.71365368
2.2657418 -4.0684299 -0.69081271
4.9723725 -4.1964378 -0.61491805
2.6016824 -3.7623534 -0.66797161
7.8560624 -3.6659651 -0.64367074
2.8256428 -3.5583031 -0.65274423
3.0496035 -3.3542531 -0.63751686
4.9759707 -3.6067493 -0.55180049
1.071859 -3.1491852 -0.62965584
3.2735636 -3.1502025 -0.62228966
4.9810729 -3.0867715 -0.49620152
8.2295818 -3.3256509 -0.61827457
1.3918024 -2.8576839 -0.60790241
3.4975245 -2.946152 -0.60706216
3.7214851 -2.7421017 -0.59183484
5.1492138 -2.755877 -0.46571693
8.6031027 -2.9853365 -0.59287852
1.7117461 -2.5661838 -0.58614916
3.9454458 -2.5380514 -0.57660753
5.4039421 -2.5060256 -0.44649249
8.9766235 -2.6450226 -0.56748241
0.84389389 -2.2405782 -0.5658468
0.96827459 -2.127255 -0.55739003
1.9517035 -2.3475578 -0.56983399
2.1116755 -2.2018073 -0.55895734
4.1694055 -2.3340001 -0.56138015
9.3501425 -2.304708 -0.5420863
1.0926551 -2.0139315 -0.54893315
1.2170354 -1.9006094 -0.54047644
2.2716472 -2.0560567 -0.54808068
2.4316189 -1.9103072 -0.53720397
4.3933668 -2.12995 -0.54615271
4.6173267 -1.9258999 -0.53092539
9.7236624 -1.9643946 -0.51669025
0.80071163 -1.5703512 -0.51842618
1.4036059 -1.7306242 -0.5277912
1.5901768 -1.5606399 -0.51510596
2.5915906 -1.7645563 -0.52632725
2.7515624 -1.618806 -0.51545054
4.8412871 -1.7218484 -0.5156979
10.097182 -1.6240801 -0.49129412
1.0551046 -1.3385735 -0.50112957
1.7145571 -1.4473165 -0.50664926
1.9011277 -1.2773319 -0.49396405
2.9115345 -1.473056 -0.50457394
3.071506 -1.3273054 -0.49369717
5.0652475 -1.5177985 -0.50047058
5.2892075 -1.3137479 -0.48524317
10.470701 -1.2837651 -0.46589792
0.77103496 -1.1075053 -0.48588172
0.94331229 -0.95054376 -0.47416839
1.3603762 -1.0604405 -0.48037377
2.0876982 -1.1073474 -0.48127881
2.2120786 -0.99402452 -0.47282213
3.2314777 -1.1815552 -0.48282048
3.3914495 -1.0358045 -0.47194386
5.5131683 -1.1096976 -0.47001582
0.60047704 -0.62608236 -0.45208392
0.74903512 -0.76683122 -0.46170679
1.1155896 -0.79358143 -0.462455
1.2878668 -0.63661945 -0.45074162
1.6656477 -0.78230739 -0.45961794
2.3364589 -0.88070142 -0.46436536
2.5230293 -0.71071661 -0.45168012
3.5514212 -0.89005423 -0.46106714
3.7113926 -0.74430364 -0.45019045
5.8491082 -0.80362201 -0.44717482
0.57174742 -0.43551666 -0.43880975
0.73008698 -0.43574756 -0.43819571
1.0239987 -0.46109158 -0.43906692
1.3561097 -0.45420349 -0.43754476
1.589352 -0.36193585 -0.43024325
1.9709191 -0.50417429 -0.43886212
2.7096002 -0.54073209 -0.43899503
2.8339806 -0.42740905 -0.43053824
3.8713646 -0.59855342 -0.43931374
4.0313368 -0.45280319 -0.42843705
6.1850491 -0.4975459 -0.42433372
0.55394149 -0.1636133 -0.41947079
0.74034584 -0.1318188 -0.41658723
1.0477428 -0.14633077 -0.41659784
1.3522973 -0.14817336 -0.4157593
1.68533 -0.15425116 -0.41516072
1.8908373 -0.087252542 -0.40974486
2.276191 -0.22604115 -0.41810632
2.4797053 -0.04061909 -0.4042691
2.9583611 -0.31408596 -0.42208138
3.1449316 -0.14410126 -0.40939626
4.191308 -0.30705291 -0.41756037
4.3512797 -0.16130233 -0.40668365
6.4090099 -0.2934956 -0.40910637
0.54181099 0.13940282 -0.39810637
0.7596311 0.16357979 -0.39565027
1.0458827 0.1303924 -0.39696375
1.3346665 0.15120892 -0.39455158
1.6312349 0.14738187 -0.39383543
1.9571241 0.093380719 -0.39668101
2.1923225 0.18743081 -0.38924646
2.6323414 0.098447382 -0.39389125
2.7849767 0.23751388 -0.38351327
3.4558825 0.13920629 -0.38825423
4.5112514 -0.015551798 -0.39580691
4.6712241 0.13019837 -0.38493022
0.5852353 0.2922805 -0.38711506
0.79381549 0.40787095 -0.37819591
1.0666144 0.45491982 -0.37394875
1.3671793 0.44194496 -0.37377518
1.6729689 0.43776238 -0.37307277
1.9420346 0.43055159 -0.37270379
2.2658758 0.4348042 -0.37141016
2.5368767 0.50135463 -0.36581975
2.9376123 0.37658042 -0.37313539
3.0902476 0.51564699 -0.3627575
3.7046435 0.36585242 -0.37134063
0.91024321 0.58839518 -0.36501729
1.1067016 0.71027875 -0.35568461
1.3669388 0.74060923 -0.35269058
1.6714883 0.73459846 -0.35198581
1.9890651 0.72487926 -0.35182604
2.3164265 0.66122067 -0.35513777
2.6660848 0.61907631 -0.35703471
1.3296868 0.91661352 -0.34029993
1.5433363 0.89281946 -0.34145969
3.0469596 -6.8147702 -0.5852856
3.3735981 -6.4934378 -0.5611074
3.7006454 -6.1776662 -0.53739369
4.0244446 -5.8589206 -0.51340848
4.3467283 -5.5415559 -0.4895263
4.6674972 -5.2255702 -0.46574697
4.9679894 -4.8865285 -0.43989956
4.9715934 -4.2128167 -0.38401064
4.9752402 -3.6221261 -0.33501264
4.9803824 -3.1012671 -0.29182202
5.1485391 -2.7700696 -0.26561612
5.4032683 -2.5201879 -0.24681953
3.0461113 -6.8325949 -0.33398286
3.3727517 -6.5112219 -0.31037509
3.6998007 -6.1954193 -0.28708935
4.023602 -5.8766332 -0.26367459
4.3458872 -5.5592279 -0.24036291
4.6666594 -5.2432022 -0.21715418
4.9671555 -4.9040499 -0.19287553
4.9708138 -4.2291937 -0.15310305
4.9745088 -3.6375017 -0.11822483
4.9796929 -3.1157637 -0.087442465
5.1478634 -2.7842617 -0.065515243
5.4025941 -2.5343499 -0.047146533
0.32533312 1.159516 0.097319141
3.0452633 -6.8504181 -0.082680121
3.3719053 -6.5290055 -0.059642948
3.6989553 -6.213172 -0.036784969
4.022758 -5.8943472 -0.0139408
4.345046 -5.5769 0.0088004619
4.6658211 -5.2608337 0.031438679
4.9663219 -4.9215698 0.05414848
4.9696455 -4.2537589 0.19325837
4.9734111 -3.6605659 0.20695683
4.9786582 -3.1375074 0.21912691
5.1468496 -2.8055506 0.23463598
5.4015827 -2.555593 0.25236288
3.0439909 -6.8771539 0.29427388
3.3706357 -6.5556798 0.31645542
3.6976883 -6.2398019 0.33867142
4.0214939 -5.9209151 0.36065999
4.3437843 -5.6034079 0.38254553
4.6645613 -5.2872815 0.40432796
4.9650726 -4.9478507 0.42468452
4.9684768 -4.2783246 0.53961957
4.972312 -3.683629 0.53213847
4.9776235 -3.1592507 0.52569622
5.1458373 -2.826839 0.5347873
5.4005723 -2.5768361 0.55187237
3.0427191 -6.9038911 0.67122799
3.3693671 -6.582355 0.69255376
3.6964214 -6.2664313 0.71412796
4.0202298 -5.9474835 0.73526061
4.3425231 -5.6299152 0.75629056
4.6633034 -5.3137279 0.77721733
4.9638214 -4.9741306 0.79522061
4.9676962 -4.2947021 0.77052718
4.9712152 -3.7066932 0.85732031
4.9765892 -3.1809947 0.83226544
5.144825 -2.8481281 0.83493847
5.3995614 -2.598079 0.8513819
3.0418706 -6.9217143 0.92253083
3.368521 -6.6001391 0.94328582
3.6955764 -6.2841854 0.96443248
4.0193868 -5.9651961 0.98499453
4.3416824 -5.6475892 1.0054541
4.6624646 -5.3313599 1.02581
4.9629879 -4.9916515 1.0422446
4.9669175 -4.3110785 1.0014347
4.970118 -3.7297571 1.1825022
4.9755545 -3.202739 1.1388348
5.1438117 -2.8694162 1.1350898
5.398551 -2.6193221 1.1508914
3.041023 -6.939539 1.1738334
3.3676748 -6.6179223 1.1940184
3.694732 -6.3019381 1.2147367
4.0185452 -5.9829097 1.2347288
4.3408408 -5.6652608 1.2546171
4.6616249 -5.3489923 1.2744031
4.9621539 -5.0091729 1.2892685
4.9657483 -4.3356462 1.3477961
4.9693851 -3.7451329 1.3992897
4.9745197 -3.2244823 1.4454042
5.1427984 -2.8907051 1.4352411
5.3975406 -2.6405649 1.4504008
3.040174 -6.9573612 1.425136
3.3668282 -6.6357055 1.4447501
3.6938868 -6.3196921 1.4650412
4.0177011 -6.0006223 1.4844623
4.3400011 -5.6829329 1.5037804
4.6607862 -5.3666239 1.5229958
4.9613199 -5.0266924 1.5362922
4.9645786 -4.3602118 1.6941574
4.9682889 -3.7681968 1.7244716
4.973485 -3.2462263 1.7519737
5.1417856 -2.9119937 1.7353926
5.3965282 -2.661808 1.7499102
3.0389025 -6.9840984 1.8020906
3.3655591 -6.6623807 1.8208488
3.6926198 -6.3463211 1.8404975
4.0164371 -6.0271907 1.8590633
4.3387399 -5.7094412 1.8775257
4.6595278 -5.3930712 1.8958852
4.9600692 -5.0529737 1.9068288
4.9637995 -4.3765893 1.9250647
4.9671912 -3.791261 2.0496533
4.9724503 -3.2679701 2.058543
5.1407723 -2.9332824 2.0355434
5.3955178 -2.6830511 2.0494199
3.0376298 -7.0108337 2.1790445
3.3642895 -6.6890554 2.1969473
3.6913521 -6.372951 2.2159541
4.015173 -6.0537601 2.233664
4.3374777 -5.7359495 2.2512712
4.6582685 -5.4195189 2.2687743
4.958818 -5.0792532 2.277365
4.9626307 -4.401155 2.2714264
4.9664593 -3.8066363 2.2664409
4.9714155 -3.2897139 2.3651123
5.1397586 -2.9545712 2.3356948
5.3945069 -2.704294 2.3489292
3.036782 -7.0286574 2.4303472
3.3634431 -6.7068396 2.4476798
3.6905077 -6.3907032 2.4662585
4.0143294 -6.0714717 2.4833975
4.336637 -5.7536211 2.5004339
4.6574297 -5.437151 2.5173674
4.9579849 -5.0967741 2.5243886
4.961462 -4.4257216 2.6177878
4.9653621 -3.8297009 2.5916231
4.9703808 -3.3114579 2.6716814
5.1387458 -2.9758596 2.6358464
5.393496 -2.7255371 2.6484385
3.0359337 -7.0464816 2.6816497
3.362597 -6.7246227 2.6984115
3.6896625 -6.4084578 2.7165627
4.0134864 -6.0891857 2.7331314
4.3357968 -5.7712951 2.7495978
4.6565914 -5.454783 2.7659605
4.9571514 -5.114296 2.7714126
4.9606824 -4.4420991 2.8486955
4.9642644 -3.8527639 2.9168041
4.969346 -3.3332016 2.978251
5.1377339 -2.9971483 2.9359977
5.3924847 -2.7467804 2.9479477
3.0350854 -7.0643058 2.9329524
3.3617504 -6.7424068 2.9491434
3.6888187 -6.4262109 2.966867
4.0126443 -6.1068974 2.9828656
4.3349552 -5.7889657 2.9987609
4.6557522 -5.472414 3.0145528
4.9559011 -5.1405754 3.1419487
4.9595146 -4.4666643 3.1950564
4.9635329 -3.8681402 3.1335924
3.0342374 -7.0821309 3.1842549
3.3604813 -6.7690816 3.3252418
3.687551 -6.4528399 3.3423238
4.0113802 -6.1334667 3.357466
4.3336935 -5.8154745 3.3725057
4.6544933 -5.4988618 3.3874419
4.9546499 -5.1668553 3.5124846
3.0333896 -7.0999532 3.4355574
3.0413103 -6.9818826 -0.82521957
3.2910256 -6.6906948 -0.80782753
3.5461724 -6.3992276 -0.79065603
3.8071744 -6.1068397 -0.77366072
4.0692267 -5.8049002 -0.75576895
4.3374162 -5.5016131 -0.73802406
4.6063733 -5.1891999 -0.71941191
2.1856768 -4.9471631 -0.75502986
4.8331666 -4.8213453 -0.69339162
2.3525274 -4.6941004 -0.73762393
2.5193779 -4.4410377 -0.72021818
2.6862292 -4.1879768 -0.70281261
4.7890391 -4.1878357 -0.62873024
2.85308 -3.9349134 -0.68540686
3.0199316 -3.6818509 -0.66800106
4.7499747 -3.6182835 -0.57062477
7.418396 -3.3041086 -0.66140676
1.4914191 -3.3001342 -0.63329083
3.1867824 -3.4287891 -0.65059543
3.3536334 -3.1757264 -0.63318974
4.7163172 -3.1042054 -0.51825178
7.6964345 -2.8824086 -0.63240212
1.610568 -3.119421 -0.62086123
3.5204844 -2.9226651 -0.61578399
4.8642559 -2.7604342 -0.49101248
1.7297173 -2.9387076 -0.60843164
1.8488667 -2.7579954 -0.59600234
3.6873357 -2.6696024 -0.59837818
5.1052351 -2.4824986 -0.47453204
7.9744716 -2.4607096 -0.60339743
1.9680152 -2.577282 -0.58357275
2.0871646 -2.3965693 -0.57114321
3.8507278 -2.413837 -0.58040363
8.2525101 -2.039011 -0.57439286
1.1058347 -2.3853898 -0.56566614
1.2448182 -2.1745932 -0.55116749
2.2658882 -2.1254997 -0.55249894
4.0174379 -2.1609888 -0.56301272
4.1841488 -1.9081403 -0.54562163
8.5305481 -1.617311 -0.5453881
1.3838019 -1.9637967 -0.53666872
1.4764576 -1.8232659 -0.52700299
2.4446118 -1.8544302 -0.53385466
4.3508573 -1.6552914 -0.52823049
0.93546361 -1.6866493 -0.51428878
1.6154413 -1.6124697 -0.51250434
2.563761 -1.6737173 -0.52142519
2.68291 -1.4930041 -0.50899559
4.5175676 -1.4024428 -0.51083952
8.8085871 -1.1956122 -0.51638347
0.72257072 -1.3514744 -0.48937967
1.0869541 -1.4568844 -0.49848539
1.200572 -1.2845602 -0.48663285
1.8007536 -1.331408 -0.49317279
2.8020589 -1.3122915 -0.49656615
2.9212081 -1.1315784 -0.48413661
4.684278 -1.1495944 -0.49344853
9.0866251 -0.77391315 -0.48737887
0.62147278 -1.0202501 -0.4650102
0.9149285 -1.0597262 -0.46931317
1.3141899 -1.1122363 -0.47478029
1.4278076 -0.9399122 -0.46292779
1.9397371 -1.1206117 -0.47867417
2.0787208 -0.90981561 -0.46417552
3.0999317 -0.86050868 -0.46549234
4.8509874 -0.8967458 -0.47605747
5.0176978 -0.64389741 -0.45866644
9.3646622 -0.35221365 -0.45837417
0.43336934 -0.79006386 -0.44766468
0.60999995 -0.76095921 -0.4464415
0.81592673 -0.72532248 -0.44472489
1.1393461 -0.71935332 -0.4459022
1.5792983 -0.7101469 -0.44712442
2.2177045 -0.69901937 -0.44967687
2.3103607 -0.55848873 -0.44001105
