# .PCD v0.7 - Point Cloud Data file format
VERSION 0.7
FIELDS x y z
SIZE 4 4 4
TYPE F F F
COUNT 1 1 1
WIDTH 1472
HEIGHT 1
VIEWPOINT 0 0 0 1 0 0 0
POINTS 1472
DATA ascii
-0.088572443 0.22165325 -0.25926638
-0.088572443 0.22165325 -0.25926638
-0.088572443 0.22165325 -0.25926638
-0.088572443 0.22165325 -0.25926638
0.46321881 -0.046296053 -0.58898449
0.50331527 -0.062977739 -0.59203732
0.54960823 -0.082255229 -0.59569311
0.60324913 -0.10458604 -0.59989989
0.66647172 -0.13092187 -0.60495746
0.7415607 -0.16218859 -0.61088526
0.83191168 -0.19978768 -0.61784279
0.94425893 -0.24657235 -0.6267345
1.0859836 -0.30556822 -0.63779187
1.2722844 -0.3831526 -0.65255761
1.5252311 -0.48845848 -0.67236435
1.8910915 -0.64078456 -0.70111632
2.4647355 -0.87960482 -0.74605429
3.5013156 -1.3112111 -0.82769442
5.9132872 -2.315424 -1.0171012
-0.088572443 0.22165325 -0.25926638
-0.088572443 0.22165325 -0.25926638
-0.088572443 0.22165325 -0.25926638
-0.088572443 0.22165325 -0.25926638
-0.088572443 0.22165325 -0.25926638
-0.088572443 0.22165325 -0.25926638
-0.088572443 0.22165325 -0.25926638
-0.088572443 0.22165325 -0.25926638
-0.088572443 0.22165325 -0.25926638
-0.088572443 0.22165325 -0.25926638
-0.088572443 0.22165325 -0.25926638
-0.088572443 0.22165325 -0.25926638
-0.088572443 0.22165325 -0.25926638
-0.088572443 0.22165325 -0.25926638
-0.088572443 0.22165325 -0.25926638
-0.088572443 0.22165325 -0.25926638
-0.088572443 0.22165325 -0.25926638
0.46569657 -0.079277918 -0.58640397
0.50596428 -0.098222032 -0.58928001
0.55245763 -0.12011237 -0.59273183
0.60632151 -0.14547077 -0.59670115
0.66981381 -0.17537552 -0.60147977
0.7452209 -0.21088049 -0.60707593
0.83595598 -0.25357828 -0.61363471
0.94878101 -0.30670425 -0.62203026
1.0911037 -0.37369883 -0.63246143
1.2781994 -0.46179888 -0.6464051
1.532221 -0.5813809 -0.66509533
1.8996288 -0.7543565 -0.69223118
2.4757104 -1.025553 -0.73463666
3.5166874 -1.5156664 -0.81169951
5.9388967 -2.6560123 -0.99045646
-0.088572443 0.22165325 -0.25926638
-0.088572443 0.22165325 -0.25926638
-0.088572443 0.22165325 -0.25926638
-0.088572443 0.22165325 -0.25926638
-0.088572443 0.22165325 -0.25926638
-0.088572443 0.22165325 -0.25926638
-0.088572443 0.22165325 -0.25926638
-0.088572443 0.22165325 -0.25926638
-0.088572443 0.22165325 -0.25926638
-0.088572443 0.22165325 -0.25926638
-0.088572443 0.22165325 -0.25926638
-0.088572443 0.22165325 -0.25926638
-0.088572443 0.22165325 -0.25926638
-0.088572443 0.22165325 -0.25926638
-0.088572443 0.22165325 -0.25926638
-0.088572443 0.22165325 -0.25926638
-0.088572443 0.22165325 -0.25926638
0.46817821 -0.11225956 -0.58382416
0.50861335 -0.13346642 -0.5865227
0.55530345 -0.15796968 -0.5897702
0.60939401 -0.18635549 -0.59350252
0.67315584 -0.21982914 -0.59800196
0.7488811 -0.2595726 -0.6032666
0.84000027 -0.30736879 -0.60942662
0.95330322 -0.36683616 -0.61732614
1.0962273 -0.44182923 -0.6271317
1.2841107 -0.54044533 -0.64025211
1.539207 -0.67430335 -0.65782571
1.9081696 -0.86792833 -0.68334639
2.4866858 -1.1715013 -0.72321904
3.5320635 -1.7201209 -0.79570496
5.9645071 -2.9966004 -0.96381176
-0.088572443 0.22165325 -0.25926638
-0.088572443 0.22165325 -0.25926638
-0.088572443 0.22165325 -0.25926638
-0.088572443 0.22165325 -0.25926638
-0.088572443 0.22165325 -0.25926638
-0.088572443 0.22165325 -0.25926638
-0.088572443 0.22165325 -0.25926638
-0.088572443 0.22165325 -0.25926638
-0.088572443 0.22165325 -0.25926638
-0.088572443 0.22165325 -0.25926638
-0.088572443 0.22165325 -0.25926638
-0.088572443 0.22165325 -0.25926638
-0.088572443 0.22165325 -0.25926638
-0.088572443 0.22165325 -0.25926638
-0.088572443 0.22165325 -0.25926638
-0.088572443 0.22165325 -0.25926638
-0.088572443 0.22165325 -0.25926638
0.47065598 -0.14524142 -0.58124352
0.51126623 -0.16871047 -0.58376586
0.55814922 -0.19582716 -0.58680844
0.61247015 -0.22724 -0.59030426
0.67649788 -0.26428297 -0.59452415
0.752545 -0.30826426 -0.59945762
0.84404457 -0.36115935 -0.60521841
0.95782542 -0.42696807 -0.61262202
1.1013508 -0.50995952 -0.62180173
1.2900258 -0.61909163 -0.63409972
1.5461931 -0.7672258 -0.65055609
1.9167112 -0.98150021 -0.67446172
2.4976606 -1.3174492 -0.71180141
3.5474353 -1.9245762 -0.77970994
5.9901175 -3.3371885 -0.93716717
-0.088572443 0.22165325 -0.25926638
-0.088572443 0.22165325 -0.25926638
-0.088572443 0.22165325 -0.25926638
-0.088572443 0.22165325 -0.25926638
-0.088572443 0.22165325 -0.25926638
-0.088572443 0.22165325 -0.25926638
-0.088572443 0.22165325 -0.25926638
-0.088572443 0.22165325 -0.25926638
-0.088572443 0.22165325 -0.25926638
-0.088572443 0.22165325 -0.25926638
-0.088572443 0.22165325 -0.25926638
-0.088572443 0.22165325 -0.25926638
-0.088572443 0.22165325 -0.25926638
-0.088572443 0.22165325 -0.25926638
-0.088572443 0.22165325 -0.25926638
-0.088572443 0.22165325 -0.25926638
-0.088572443 0.22165325 -0.25926638
0.78287613 0.73864895 -0.63485354
0.81995463 0.76632845 -0.64293927
0.86275584 0.79828197 -0.65240657
0.91234905 0.83530444 -0.66334593
0.97080207 0.87894082 -0.67634094
1.040225 0.93076807 -0.69169438
1.1242672 0.99350679 -0.71027511
1.2281413 1.0710522 -0.73325223
1.3586762 1.1685027 -0.76183391
1.5309237 1.2970901 -0.79998726
1.7658095 1.4724412 -0.85196894
2.1040783 1.7249706 -0.92661071
2.6354945 2.1216912 -1.0438746
3.5938947 2.8371687 -1.2555648
5.8301811 4.5066314 -1.7493681
6.4810443 4.9941053 -1.7098402
6.5098505 5.0174727 -1.5003442
6.5386572 5.0408401 -1.2908483
6.5674639 5.0642076 -1.0813524
6.5962701 5.087574 -0.87185645
6.6250739 5.1109419 -0.66235995
6.6538801 5.1343102 -0.45286396
6.6826868 5.1576762 -0.24336791
6.711493 5.1810441 -0.033872157
6.7402992 5.204411 0.17562407
6.7691059 5.2277789 0.38511989
6.7979126 5.2511468 0.59461629
6.826715 5.2745137 0.80411243
6.8555212 5.2978816 1.0136086
6.8843279 5.3212485 1.2231045
6.9131346 5.3446159 1.4325999
6.9419417 5.3679824 1.642096
0.78479683 0.70570529 -0.63144302
0.82200432 0.73112482 -0.63929451
0.86496162 0.7604683 -0.6484921
0.91473001 0.79446691 -0.65911829
0.97338825 0.83453858 -0.67174387
1.043061 0.88213241 -0.68665957
1.1273985 0.9397465 -0.70470905
1.2316427 1.0109578 -0.72703069
1.3626411 1.100451 -0.75478864
1.5355014 1.2185346 -0.7918545
1.7712228 1.3795623 -0.84235352
2.1106954 1.6114664 -0.91486031
2.6439984 1.9757842 -1.0287694
3.6058044 2.6328218 -1.2344095
5.8500357 4.1659274 -1.7140956
6.5031285 4.6152058 -1.6706142
6.5319314 4.6385727 -1.4611176
6.5607381 4.6619396 -1.2516217
6.5895448 4.685307 -1.0421257
6.618351 4.7086754 -0.83262992
6.6471572 4.7320423 -0.62313384
6.6759644 4.7554102 -0.41363809
6.7047677 4.7787771 -0.20414141
6.7335744 4.8021441 0.0053545553
6.7623806 4.8255124 0.21485052
6.7911868 4.8488803 0.42434642
6.819993 4.8722472 0.63384259
6.8487997 4.8956137 0.84333837
6.8776064 4.9189816 1.0528347
6.9064131 4.9423485 1.2623303
6.9352155 4.9657159 1.4718268
6.9640222 4.9890833 1.6813227
0.78671753 0.67276144 -0.62803257
0.82405794 0.69592124 -0.63565022
0.8671636 0.72265452 -0.64457715
0.91710722 0.75362939 -0.65489012
0.97597814 0.79013616 -0.66714728
1.0458932 0.83349657 -0.681624
1.1305337 0.88598633 -0.69914377
1.2351441 0.9508633 -0.7208091
1.3666065 1.0323989 -0.74774331
1.540079 1.1399788 -0.78372175
1.7766361 1.2866834 -0.8327381
2.1173086 1.4979615 -0.90310919
2.6525025 1.8298769 -1.013664
3.6177142 2.4284756 -1.2132542
5.8698931 3.825222 -1.6788237
6.5252104 4.2363048 -1.6313876
6.5540171 4.2596717 -1.4218917
6.5828233 4.2830396 -1.2123955
6.6116257 4.3064065 -1.0028992
6.6404324 4.3297749 -0.79340327
6.669239 4.3531418 -0.58390737
6.6980453 4.3765092 -0.3744112
6.7268519 4.3998761 -0.16491535
6.7556586 4.4232435 0.044580549
6.784462 4.4466109 0.25407714
6.8132687 4.4699779 0.46357313
6.8420749 4.4933462 0.6730696
6.8708816 4.5167131 0.88256514
6.8996878 4.5400805 1.0920608
6.928494 4.563448 1.3015567
6.9573011 4.5868158 1.5110528
6.9861035 4.6101823 1.7205492
0.78863823 0.63981783 -0.62462211
0.82610762 0.66071761 -0.63200545
0.86936939 0.68484104 -0.64066261
0.91948819 0.7127921 -0.65066236
0.9785642 0.74573374 -0.66255033
1.0487292 0.78486097 -0.67658919
1.133665 0.83222592 -0.69357789
1.2386456 0.89076895 -0.71458757
1.3705715 0.96434718 -0.74069804
1.5446566 1.0614231 -0.77558905
1.7820493 1.1938044 -0.82312262
2.1239257 1.384457 -0.89135867
2.6610065 1.6839699 -0.99855882
3.6296239 2.2241297 -1.192099
5.8897476 3.4845173 -1.6435513
6.5430822 3.8550591 -1.591248
6.5718689 3.8784111 -1.3818929
6.6006565 3.9017622 -1.1725376
6.6294394 3.9251137 -0.96318185
6.658227 3.9484658 -0.75382686
6.6870141 3.9718165 -0.54447168
6.7158008 3.9951687 -0.33511636
6.7445884 4.0185204 -0.12576124
6.7733755 4.041872 0.083593637
6.8021626 4.0652237 0.29294935
6.830946 4.0885758 0.50230515
6.8597331 4.1119266 0.71166015
6.8885207 4.1352787 0.92101526
6.9173079 4.1586304 1.1303704
6.946095 4.181982 1.3397254
6.9748821 4.2053342 1.5490804
7.0036654 4.2286844 1.7584361
0.79055893 0.60687417 -0.62121165
0.82816112 0.62551403 -0.62836105
0.87157142 0.64702731 -0.63674772
0.92186922 0.67195463 -0.64643472
0.98115414 0.7013315 -0.65795374
1.0515649 0.73622525 -0.67155427
1.1368001 0.77846575 -0.68801254
1.2421505 0.83067471 -0.70836663
1.3745403 0.89629555 -0.73365325
1.5492344 0.9828676 -0.76745635
1.7874625 1.1009254 -0.8135072
2.1305389 1.2709525 -0.87960762
2.6695106 1.5380627 -0.98345351
3.64153 2.0197825 -1.1709429
5.909606 3.1438131 -1.6082795
6.5651484 3.4764135 -1.552048
6.5939355 3.4997652 -1.3426927
6.6227231 3.5231166 -1.1333375
6.6515069 3.546468 -0.92398185
6.6802936 3.5698199 -0.71462667
6.7090807 3.5931716 -0.50527138
6.7378683 3.6165235 -0.29591623
6.766655 3.6398747 -0.086561143
6.7954426 3.6632266 0.122794
6.8242297 3.6865785 0.33214915
6.8530126 3.7099302 0.54150504
6.8818002 3.7332809 0.75086033
6.9105873 3.7566326 0.96021521
6.939374 3.7799845 1.1695704
6.9681621 3.8033364 1.3789258
6.9969492 3.8266873 1.5882803
7.025733 3.850039 1.7976365
0.79247576 0.57393038 -0.61780071
0.83021086 0.59031034 -0.62471628
0.87377334 0.60921359 -0.63283265
0.92425007 0.63111717 -0.64220715
0.98374027 0.65692908 -0.65335667
1.0543971 0.68758959 -0.66651875
1.1399314 0.72470546 -0.68244666
1.245652 0.77058017 -0.70214504
1.3785056 0.82824373 -0.72660792
1.5538119 0.90431195 -0.75932366
1.7928758 1.0080465 -0.80389184
2.137156 1.1574481 -0.86785722
2.6780105 1.3921553 -0.96834779
3.65344 1.8154367 -1.1497878
5.9294634 2.8031085 -1.5730076
6.5872159 3.0977681 -1.5128478
6.6160026 3.1211197 -1.3034927
6.6447902 3.1444712 -1.0941374
6.6735778 3.1678231 -0.8847822
6.7023606 3.1911745 -0.67542672
6.7311482 3.2145257 -0.46607155
6.7599354 3.2378778 -0.25671607
6.7887225 3.2612295 -0.047360957
6.8175097 3.2845809 0.16199395
6.8462968 3.3079324 0.37134939
6.8750839 3.3312843 0.58070469
6.9038672 3.354636 0.79006016
6.9326544 3.3779876 0.9994154
6.9614415 3.4013386 1.2087703
6.9902287 3.4246907 1.4181256
7.0190167 3.4480426 1.6274807
7.0478034 3.4713941 1.8368363
0.79439652 0.54098672 -0.61439031
0.83226436 0.55510682 -0.62107205
0.87597913 0.57140005 -0.62891829
0.92662728 0.59027952 -0.63797891
0.98633021 0.61252677 -0.64876002
1.0572331 0.6389538 -0.66148388
1.1430666 0.67094517 -0.67688125
1.2491534 0.71048594 -0.69592351
1.3824708 0.76019186 -0.71956253
1.5583934 0.82575649 -0.7511915
1.7982889 0.91516751 -0.79427636
2.1437693 1.0439433 -0.85610616
2.6865146 1.2462484 -0.95324254
3.6653495 1.6110902 -1.1286324
5.9493175 2.4624035 -1.5377352
6.609283 2.7191222 -1.4736476
6.6380706 2.7424736 -1.2642925
6.6668572 2.7658255 -1.0549372
6.6956444 2.7891772 -0.84558201
6.724432 2.8125291 -0.63622701
6.7532153 2.8358803 -0.42687133
6.7820029 2.8592322 -0.21751609
6.8107901 2.8825834 -0.008160783
6.8395767 2.9059353 0.20119415
6.8683643 2.9292865 0.4105494
6.8971515 2.9526386 0.61990488
6.9259381 2.9759901 0.82925987
6.9547219 2.9993415 1.0386153
6.9835091 3.0226929 1.2479706
7.0122962 3.0460448 1.4573257
7.0410833 3.069396 1.6666808
7.0698705 3.0927479 1.8760358
0.79631722 0.50804305 -0.6109798
0.83431423 0.51990318 -0.61742735
0.8781811 0.53358638 -0.62500328
0.92900825 0.54944217 -0.63375133
0.98891628 0.56812435 -0.64416301
1.0600691 0.59031814 -0.65644902
1.1461978 0.61718482 -0.67131543
1.2526586 0.65039158 -0.68970257
1.3864359 0.69213998 -0.7125172
1.5629711 0.74720091 -0.7430588
1.8037022 0.82228869 -0.78466088
2.1503863 0.93043894 -0.84435564
2.6950185 1.1003412 -0.93813717
3.6772594 1.406744 -1.1074772
5.9691758 2.1216991 -1.502463
6.62708 2.3391492 -1.4336398
6.655848 2.3624849 -1.2244254
6.6846156 2.3858211 -1.015211
6.7133837 2.409157 -0.8059966
6.7421513 2.432493 -0.59678233
6.7709193 2.4558289 -0.38756776
6.7996836 2.4791646 -0.17835286
6.8284512 2.5025008 0.030861603
6.8572192 2.5258362 0.24007559
6.8859878 2.5491724 0.44929036
6.9147553 2.5725083 0.65850449
6.9435191 2.595844 0.86771983
6.9722867 2.6191804 1.0769343
7.0010552 2.6425161 1.2861483
7.0298228 2.6658521 1.4953625
7.0585904 2.689188 1.7045772
7.087358 2.7125237 1.9137914
0.79823786 0.47509933 -0.6075694
0.83636773 0.48469961 -0.613783
0.88038689 0.49577284 -0.62108874
0.93138921 0.50860476 -0.62952363
0.9915024 0.52372187 -0.63956589
1.062901 0.5416823 -0.65141356
1.149333 0.56342465 -0.66575003
1.2561599 0.5902971 -0.6834811
1.3904049 0.62408835 -0.70547241
1.5675488 0.66864526 -0.73492599
1.8091154 0.72940975 -0.77504545
2.1569996 0.81693435 -0.83260459
2.7035224 0.95443398 -0.92303193
3.6891692 1.2023975 -1.0863218
5.9890299 1.7809943 -1.4671907
6.6491337 1.9607584 -1.394466
6.6779008 1.9840943 -1.1852517
6.7066689 2.0074301 -0.97603732
6.7354369 2.030766 -0.76682305
6.7642045 2.0541022 -0.5576086
6.7929688 2.0774376 -0.34839365
6.8217363 2.1007738 -0.13917926
6.8505039 2.1241097 0.07003516
6.879272 2.1474454 0.27924952
6.9080396 2.1707816 0.48846409
6.9368086 2.1941175 0.69767857
6.9655757 2.2174535 0.90689272
6.9943395 2.2407892 1.1161076
7.0231075 2.2641253 1.3253225
7.0518751 2.2874613 1.5345362
7.0806432 2.3107967 1.7437506
7.1094108 2.3341329 1.9529653
0.80015856 0.44215572 -0.60415882
0.83841741 0.44949591 -0.6101383
0.88258892 0.45795906 -0.61717385
0.93377012 0.46776736 -0.62529594
0.99409235 0.47931963 -0.63496935
1.065737 0.49304664 -0.64637858
1.1524644 0.50966418 -0.66018414
1.2591429 0.53011608 -0.6770243
1.3943701 0.55603647 -0.69842708
1.5721264 0.59008956 -0.72679329
1.8145285 0.63653076 -0.76543003
2.1636128 0.70342964 -0.82085347
2.7120268 0.80852693 -0.90792668
3.7010789 0.99805123 -1.0651665
6.0088878 1.44029 -1.4319189
6.6711869 1.5823674 -1.3552924
6.6999545 1.6057034 -1.1460781
6.7287216 1.6290394 -0.9368636
6.7574897 1.6523752 -0.72764933
6.7862539 1.6757112 -0.51843441
6.815022 1.699047 -0.30922005
6.8437896 1.7223831 -0.10000547
6.8725567 1.7457187 0.10920863
6.9013252 1.7690549 0.31842294
6.9300928 1.7923909 0.5276376
6.9588609 1.8157269 0.73685229
6.9876285 1.8390628 0.94606662
7.0163932 1.8623986 1.1552812
7.0451608 1.8857344 1.3644959
7.0739284 1.9090704 1.5737103
7.1026964 1.9324061 1.7829243
7.1314597 1.955742 1.9921391
0.80207551 0.40921187 -0.60074782
0.84047103 0.41429245 -0.60649401
0.88479465 0.42014554 -0.61325932
0.93614733 0.42692977 -0.62106776
0.99667853 0.43491715 -0.63037235
1.0685692 0.4444108 -0.64134324
1.1555958 0.45590383 -0.6546182
1.2626425 0.47005349 -0.67080617
1.3983352 0.48798466 -0.69138175
1.576704 0.51153404 -0.71866065
1.819942 0.54365194 -0.75581455
2.1702299 0.58992517 -0.80910301
2.7205305 0.66261977 -0.89282143
3.7129891 0.79370469 -1.0440112
6.0287418 1.0995851 -1.3966464
6.6932387 1.2039765 -1.316119
6.7220068 1.2273124 -1.1069045
6.7507749 1.2506484 -0.89769006
6.7795391 1.2739842 -0.68847513
6.8083067 1.2973199 -0.47926083
6.8370752 1.3206561 -0.27004641
6.8658428 1.343992 -0.060832061
6.8946104 1.3673278 0.14838241
6.923378 1.3906639 0.35759676
6.9521456 1.4139999 0.56681108
6.9809103 1.4373356 0.77602613
7.0096779 1.4606715 0.98524058
7.0384459 1.4840074 1.194455
7.0672135 1.5073435 1.4036689
7.0959816 1.5306795 1.6128839
7.1247497 1.5540153 1.8220978
7.1535134 1.5773511 2.0313125
0.80399621 0.37626824 -0.59733737
0.84252071 0.37908876 -0.60284919
0.88699663 0.38233185 -0.60934436
0.93852824 0.38609236 -0.61684018
0.99926841 0.39051485 -0.62577581
1.0714051 0.3957752 -0.63630831
1.1587307 0.4021436 -0.64905298
1.2661459 0.40999109 -0.66458845
1.4023002 0.41993278 -0.68433636
1.5812817 0.43297839 -0.7105279
1.8253551 0.45077294 -0.74619913
2.1768432 0.47642052 -0.79735196
2.7290347 0.51671267 -0.87771618
3.7248988 0.58935827 -1.0228559
6.0485992 0.75888044 -1.3613745
6.715292 0.82558554 -1.2769451
6.7440596 0.84892154 -1.0677308
6.7728238 0.87225723 -0.85851586
6.8015919 0.89559323 -0.64930153
6.8303595 0.9189291 -0.44008714
6.8591275 0.94226515 -0.23087262
6.8878951 0.96560109 -0.021658449
6.9166636 0.98893696 0.18755606
6.9454308 1.012273 0.39677054
6.9741945 1.0356088 0.60598534
7.0029626 1.0589447 0.81520015
7.0317307 1.0822806 1.0244143
7.0604987 1.1056166 1.2336284
7.0892658 1.1289524 1.442843
7.1180339 1.1522884 1.6520572
7.1468019 1.1756243 1.8612714
7.1755662 1.1989602 2.0704863
0.80591691 0.34332454 -0.59392697
0.84457433 0.34388524 -0.59920496
0.88920242 0.3445183 -0.60542989
0.94090921 0.34525496 -0.61261255
1.0018545 0.34611243 -0.62117869
1.074241 0.34713948 -0.63127345
1.1618659 0.34838337 -0.64348751
1.2696455 0.3499285 -0.65837026
1.4062693 0.35188109 -0.67729163
1.5858594 0.35442281 -0.70239514
1.8307647 0.35789388 -0.73658311
2.1834602 0.36291608 -0.7856015
2.7375383 0.37080553 -0.86261088
3.736805 0.38501179 -1.0017
6.0684543 0.41817576 -1.326102
6.7330008 0.44714046 -1.2370956
6.7617455 0.47046059 -1.0280215
6.790494 0.49378079 -0.81894791
6.819242 0.51710105 -0.60987431
6.847991 0.54042131 -0.40080079
6.876739 0.56374151 -0.19172707
6.9054885 0.58706176 0.017346652
6.9342327 0.61038184 0.22642048
6.9629812 0.63370204 0.43549415
6.9917297 0.65702236 0.64456797
7.0204778 0.68034261 0.85364175
7.0492268 0.70366275 1.0627149
7.0779748 0.72698301 1.2717886
7.1067233 0.75030333 1.480862
7.135468 0.77362341 1.6899364
7.1642165 0.79694366 1.8990097
7.1929655 0.82026392 2.1080837
0.80783761 0.31038094 -0.59051651
0.84662402 0.30868155 -0.59556007
0.89140445 0.30670458 -0.60151494
0.94329017 0.30441755 -0.60838479
1.0044446 0.30171016 -0.6165821
1.0770731 0.2985037 -0.62623799
1.1649973 0.29462305 -0.63792157
1.2731451 0.28986588 -0.65215188
1.4102345 0.28382927 -0.67024624
1.5904408 0.27586731 -0.69426304
1.8361777 0.26501492 -0.72696763
2.1900735 0.24941143 -0.77385044
2.7460387 0.22489825 -0.84750503
3.7487147 0.18066543 -0.98054475
6.0883126 0.077471182 -1.2908303
6.7550364 0.069003999 -1.1979479
6.7837844 0.092324212 -0.98887426
6.8125334 0.11564446 -0.77980065
6.8412809 0.13896468 -0.57072693
6.8700299 0.16228493 -0.36165354
6.8987784 0.18560517 -0.15257992
6.9275227 0.20892544 0.056494318
6.9562721 0.23224553 0.26556775
6.9850197 0.25556588 0.47464132
7.0137687 0.27888614 0.68371511
7.0425172 0.30220637 0.89278853
7.0712657 0.32552648 1.1018622
7.1000142 0.34884679 1.3109356
7.128758 0.37216693 1.5200098
7.1575069 0.39548701 1.7290837
7.1862555 0.41880739 1.9381572
7.215004 0.44212759 2.1472306
0.80975831 0.27743727 -0.58710605
0.84867752 0.27347803 -0.59191591
0.89361024 0.26889101 -0.59760046
0.94566733 0.26357999 -0.60415667
1.0070306 0.25730768 -0.61198509
1.0799091 0.24986807 -0.62120306
1.1681286 0.2408627 -0.63235563
1.2766447 0.22980328 -0.64593375
1.4141996 0.21577743 -0.66320097
1.5950184 0.19731176 -0.68613029
1.8415909 0.17213604 -0.71735221
2.1966906 0.13590704 -0.76209998
2.7545426 0.078991167 -0.83239985
3.7606246 -0.02368103 -0.95938951
6.1081667 -0.2632336 -1.2555578
6.7770748 -0.30913234 -1.1588007
6.8058233 -0.28581208 -0.94972706
6.8345714 -0.26249164 -0.74065346
6.8633199 -0.23917152 -0.53157979
6.8920684 -0.21585126 -0.32250637
6.9208136 -0.19253109 -0.11343227
6.9495621 -0.16921096 0.095641479
6.9783106 -0.14589064 0.3047148
7.0070591 -0.12257041 0.5137884
7.0358071 -0.099250093 0.72286218
7.0645561 -0.075930074 0.93193609
7.0933046 -0.052609593 1.1410097
7.1220493 -0.029289529 1.3500834
7.1507974 -0.0059693903 1.5591573
7.1795459 0.017350808 1.7682307
7.2082944 0.040671095 1.9773041
7.2370429 0.063991226 2.1863778
0.81167519 0.2444934 -0.58369499
0.85072732 0.23827435 -0.58827102
0.89581221 0.23107733 -0.59368545
0.94804835 0.22274257 -0.59992903
1.0096167 0.21290529 -0.60738796
1.0827451 0.2012324 -0.61616814
1.1712637 0.18710245 -0.62679029
1.2801442 0.16974068 -0.63971555
1.4181647 0.14772552 -0.65615565
1.5995963 0.11875611 -0.67799765
1.8459318 0.079454243 -0.70741165
2.2033038 0.022402376 -0.75034893
2.7630467 -0.066915989 -0.81729454
3.7725344 -0.22802745 -0.93823421
6.1280246 -0.60393816 -1.2202859
6.7991138 -0.68726856 -1.1196535
6.8278623 -0.66394824 -0.91057986
6.8566108 -0.64062804 -0.70150632
6.885355 -0.6173079 -0.49243224
6.9141035 -0.5939877 -0.28335866
6.942852 -0.57066733 -0.074285083
6.9716005 -0.54734719 0.13478871
7.000349 -0.52402681 0.34386203
7.0290971 -0.50070691 0.55293554
7.0578461 -0.47738659 0.76200968
7.0865912 -0.45406646 0.97108358
7.1153393 -0.43074614 1.1801571
7.1440883 -0.40742606 1.3892307
7.1728358 -0.3841058 1.5983045
7.2015843 -0.36078531 1.8073779
7.2303333 -0.33746529 2.0164518
7.2590775 -0.31414527 2.2255254
0.81359589 0.21154974 -0.58028454
0.85278082 0.20307082 -0.58462685
0.89801794 0.19326374 -0.58977109
0.95042926 0.18190514 -0.59570146
1.0122066 0.16850299 -0.60279149
1.0855772 0.15259656 -0.61113268
1.1743951 0.1333421 -0.6212244
1.2836475 0.10967825 -0.63349789
1.4221336 0.079673871 -0.64911085
1.6041738 0.040200487 -0.66986489
1.8513416 -0.013360992 -0.69780278
2.2099209 -0.091102228 -0.73859835
2.7715507 -0.21282305 -0.80218935
3.7844441 -0.4323737 -0.91707891
6.1478825 -0.94464254 -1.1850139
7.0501513 -1.1155565 -1.1101741
7.079906 -1.0914195 -0.89377946
7.1096616 -1.0672827 -0.67738479
7.1394167 -1.0431457 -0.46099013
7.1691718 -1.0190088 -0.2445955
7.1989231 -0.99487197 -0.028200252
7.2286782 -0.97073555 0.18819456
7.2584333 -0.94659829 0.40458918
7.2881885 -0.92246175 0.62098372
7.317944 -0.89832497 0.83737868
7.3476954 -0.87418807 1.0537738
7.3774505 -0.8500514 1.2701685
7.4072051 -0.82591462 1.4865632
7.4369607 -0.80177754 1.702957
7.4667158 -0.77764076 1.9193532
7.4964709 -0.75350398 2.1357472
7.526226 -0.72936714 2.3521423
0.81551659 0.17860608 -0.57687408
0.85483062 0.16786715 -0.58098197
0.90021998 0.15545011 -0.58585602
0.95281023 0.14106774 -0.5914737
1.0147927 0.12410054 -0.59819436
1.0884132 0.10396095 -0.60609776
1.1775302 0.079581939 -0.61565906
1.2871473 0.049615636 -0.6272797
1.4260988 0.011622056 -0.64206547
1.6087515 -0.038355157 -0.6617322
1.8567513 -0.10617627 -0.68819404
2.2165344 -0.20460676 -0.72684741
2.7800546 -0.3587302 -0.78708398
3.7963541 -0.63672006 -0.89592355
6.1677365 -1.2853472 -1.1497414
7.6518097 -1.6666335 -1.1409438
7.6841006 -1.6404397 -0.90610546
7.7163916 -1.6142461 -0.67126715
7.748683 -1.5880517 -0.43642917
7.7809744 -1.5618581 -0.20159085
7.813262 -1.5356635 0.033247888
7.8455567 -1.5094694 0.26808587
7.8778443 -1.4832754 0.50292438
7.9101353 -1.4570816 0.73776263
7.9424262 -1.4308876 0.97260106
7.9747176 -1.4046934 1.2074389
8.0070095 -1.3784993 1.4422771
8.0392971 -1.3523054 1.677116
8.0715876 -1.3261112 1.9119539
8.103878 -1.2999175 2.1467922
8.1361704 -1.2737237 2.3816307
8.1684608 -1.2475291 2.6164689
0.81743729 0.14566241 -0.57346368
0.85688412 0.13266362 -0.57733768
0.90242577 0.11763653 -0.58194166
0.95518738 0.10023019 -0.58724558
1.0173829 0.079698339 -0.59359777
1.0912452 0.055325143 -0.6010623
1.1806616 0.025821492 -0.61009318
1.2906468 -0.010446981 -0.6210615
1.4300641 -0.056429818 -0.63502014
1.6133291 -0.11691077 -0.6535995
1.8621609 -0.19899164 -0.67858517
2.2231512 -0.3181113 -0.71509683
2.7885587 -0.50463742 -0.77197874
3.8082638 -0.8410666 -0.87476826
6.1875949 -1.626052 -1.1144695
8.3637657 -2.3197961 -1.1772343
8.3990574 -2.291168 -0.92057371
8.4343452 -2.2625394 -0.66391259
8.4696369 -2.2339115 -0.40725201
8.5049286 -2.2052832 -0.15059134
8.5402203 -2.1766553 0.10606949
8.5755138 -2.1480269 0.36273038
8.6107998 -2.1193995 0.61939156
8.6460915 -2.0907712 0.87605232
8.681385 -2.0621428 1.1327128
8.7166767 -2.0335143 1.3893735
8.7519684 -2.0048866 1.6460346
8.7872601 -1.9762582 1.9026953
8.8225479 -1.9476296 2.1593561
8.8578415 -1.9190022 2.4160173
8.8931313 -1.8903741 2.6726778
8.9284229 -1.861746 2.9293382
0.81935799 0.11271878 -0.57005322
0.85893381 0.097459942 -0.57369292
0.90462768 0.079822861 -0.57802659
0.95756841 0.059392728 -0.58301789
1.0199689 0.035295829 -0.58900076
1.0940812 0.0066894442 -0.59602731
1.1837966 -0.027938724 -0.60452783
1.2941463 -0.070509493 -0.61484319
1.434029 -0.12448166 -0.62797487
1.6179067 -0.19546632 -0.64546686
1.8675706 -0.29180694 -0.66897631
2.2297649 -0.43161577 -0.70334584
2.7970626 -0.6505447 -0.75687349
3.8201735 -1.045413 -0.8536129
6.2074494 -1.9667567 -1.0791972
9.2226639 -3.1072023 -1.2210791
9.2615757 -3.0756376 -0.93809068
9.3004875 -3.0440733 -0.65510213
9.3394012 -3.0125086 -0.37211362
9.3783131 -2.9809439 -0.089125097
9.4172192 -2.949379 0.19386393
9.4561329 -2.9178143 0.47685233
9.4950447 -2.8862495 0.75984102
9.5339584 -2.8546851 1.042829
9.5728683 -2.8231206 1.3258178
9.6117783 -2.7915556 1.6088068
9.6506901 -2.7599902 1.8917955
9.6896019 -2.7284262 2.1747847
9.7285137 -2.6968613 2.457773
9.7674217 -2.6652963 2.7407613
9.8110752 -2.6352246 3.0253694
9.8500061 -2.6036441 3.3084986
0.82127488 0.079774976 -0.56664222
0.86098737 0.062256448 -0.57004869
0.90683353 0.042009339 -0.57411218
0.95994937 0.018555328 -0.57879031
1.0225588 -0.0091064721 -0.58440423
1.0969172 -0.041946203 -0.59099245
1.1869279 -0.081699029 -0.59896189
1.2976497 -0.13057201 -0.60862553
1.4379982 -0.19253327 -0.62093008
1.6224883 -0.2740218 -0.63733459
1.8729805 -0.3846221 -0.65936744
2.2363818 -0.54512036 -0.69159526
2.8055627 -0.79645187 -0.74176776
3.8320794 -1.2497594 -0.83245713
6.2273073 -2.3074615 -1.0439253
0.2814154 0.36680055 -0.23324946
0.2814154 0.36680055 -0.23324946
0.2814154 0.36680055 -0.23324946
0.2814154 0.36680055 -0.23324946
0.2814154 0.36680055 -0.23324946
0.2814154 0.36680055 -0.23324946
0.2814154 0.36680055 -0.23324946
0.2814154 0.36680055 -0.23324946
0.2814154 0.36680055 -0.23324946
0.2814154 0.36680055 -0.23324946
0.2814154 0.36680055 -0.23324946
0.2814154 0.36680055 -0.23324946
0.2814154 0.36680055 -0.23324946
0.2814154 0.36680055 -0.23324946
0.2814154 0.36680055 -0.23324946
0.2814154 0.36680055 -0.23324946
0.2814154 0.36680055 -0.23324946
0.82319558 0.046831325 -0.56323171
0.86303711 0.02705276 -0.56640393
0.90903544 0.0041955709 -0.57019717
0.96233022 -0.022282049 -0.57456261
1.0251449 -0.053508833 -0.57980716
1.0997492 -0.090581939 -0.58595705
1.190063 -0.13545926 -0.59339654
1.3011494 -0.19063459 -0.60240734
1.4419632 -0.26058519 -0.61388475
1.6270658 -0.35257745 -0.62920189
1.87839 -0.4774375 -0.6497587
2.242995 -0.65862489 -0.67984426
2.8140669 -0.94235909 -0.72666246
3.8439894 -1.454106 -0.81130177
6.2471609 -2.6481657 -1.0086529
0.2814154 0.36680055 -0.23324946
0.2814154 0.36680055 -0.23324946
0.2814154 0.36680055 -0.23324946
0.2814154 0.36680055 -0.23324946
0.2814154 0.36680055 -0.23324946
0.2814154 0.36680055 -0.23324946
0.2814154 0.36680055 -0.23324946
0.2814154 0.36680055 -0.23324946
0.2814154 0.36680055 -0.23324946
0.2814154 0.36680055 -0.23324946
0.2814154 0.36680055 -0.23324946
0.2814154 0.36680055 -0.23324946
0.2814154 0.36680055 -0.23324946
0.2814154 0.36680055 -0.23324946
0.2814154 0.36680055 -0.23324946
0.2814154 0.36680055 -0.23324946
0.2814154 0.36680055 -0.23324946
0.82511628 0.013887644 -0.55982125
0.86509067 -0.0081508607 -0.56275964
0.91123748 -0.033618063 -0.56628227
0.96470737 -0.06311962 -0.57033443
1.0277309 -0.097911283 -0.57521003
1.1025852 -0.13921775 -0.58092213
1.1931944 -0.18921967 -0.58783054
1.304649 -0.25069708 -0.5961892
1.4459282 -0.328637 -0.60683936
1.6316437 -0.43113297 -0.62106913
1.8837959 -0.57025278 -0.64014935
2.2496121 -0.77212942 -0.6680938
2.8225708 -1.0882664 -0.71155715
3.8558991 -1.658452 -0.79014653
6.2670193 -2.9888706 -0.97338092
0.2814154 0.36680055 -0.23324946
0.2814154 0.36680055 -0.23324946
0.2814154 0.36680055 -0.23324946
0.2814154 0.36680055 -0.23324946
0.2814154 0.36680055 -0.23324946
0.2814154 0.36680055 -0.23324946
0.2814154 0.36680055 -0.23324946
0.2814154 0.36680055 -0.23324946
0.2814154 0.36680055 -0.23324946
0.2814154 0.36680055 -0.23324946
0.2814154 0.36680055 -0.23324946
0.2814154 0.36680055 -0.23324946
0.2814154 0.36680055 -0.23324946
0.2814154 0.36680055 -0.23324946
0.2814154 0.36680055 -0.23324946
0.2814154 0.36680055 -0.23324946
0.2814154 0.36680055 -0.23324946
0.82703698 -0.019056082 -0.55641085
0.86714041 -0.043354467 -0.55911481
0.91344327 -0.071431726 -0.56236774
0.9670884 -0.10395707 -0.5661068
1.030321 -0.14231358 -0.5706135
1.1054173 -0.18785347 -0.57588673
1.1963296 -0.24297984 -0.58226532
1.3081486 -0.31075978 -0.58997095
1.4498935 -0.3966887 -0.59979403
1.6362211 -0.50968879 -0.61293644
1.8892057 -0.66306818 -0.63054049
2.2562256 -0.88563406 -0.65634274
2.8310747 -1.2341733 -0.6964519
3.8678088 -1.8627988 -0.76899111
6.2868738 -3.3295763 -0.93810844
0.2814154 0.36680055 -0.23324946
0.2814154 0.36680055 -0.23324946
0.2814154 0.36680055 -0.23324946
0.2814154 0.36680055 -0.23324946
0.2814154 0.36680055 -0.23324946
0.2814154 0.36680055 -0.23324946
0.2814154 0.36680055 -0.23324946
0.2814154 0.36680055 -0.23324946
0.2814154 0.36680055 -0.23324946
0.2814154 0.36680055 -0.23324946
0.2814154 0.36680055 -0.23324946
0.2814154 0.36680055 -0.23324946
0.2814154 0.36680055 -0.23324946
0.2814154 0.36680055 -0.23324946
0.2814154 0.36680055 -0.23324946
0.2814154 0.36680055 -0.23324946
0.2814154 0.36680055 -0.23324946
0.47897181 0.59878737 -0.58730626
0.51565301 0.62737697 -0.59388494
0.55800223 0.66038507 -0.60161293
0.60706747 0.69862854 -0.61053669
0.66490436 0.7437076 -0.62115645
0.73359418 0.7972455 -0.63368893
0.81674492 0.86205471 -0.64885414
0.91901863 0.9417696 -0.66736543
1.0486659 1.042818 -0.69088709
1.2190878 1.1756512 -0.72204006
1.4504814 1.3560023 -0.76409435
1.7861718 1.6176504 -0.82537174
2.3119564 2.0274575 -0.92103982
3.2581549 2.7649465 -1.0932293
5.4686818 4.4878807 -1.4957416
5.9733539 4.8796802 -1.4028124
5.9975162 4.8967471 -1.1970346
6.0216784 4.9138145 -0.99125683
6.0458412 4.9308815 -0.78547907
6.0699997 4.947948 -0.57970095
6.094162 4.9650149 -0.37392312
6.1183238 4.9820814 -0.16814542
6.1424861 4.9991493 0.037632406
6.1666489 5.0162163 0.24341026
6.1908107 5.0332832 0.44918802
6.2149734 5.0503507 0.65496564
6.2391353 5.0674176 0.8607434
6.2632976 5.0844851 1.0665215
6.287457 5.1015515 1.2722999
6.3116188 5.1186185 1.4780767
6.3357816 5.1356859 1.6838543
6.3599434 5.1527524 1.8896322
0.48145345 0.56579542 -0.58486128
0.51830578 0.59212178 -0.59127235
0.56085169 0.6225161 -0.59880662
0.61014748 0.65773141 -0.60750639
0.6682502 0.69924015 -0.61786127
0.73725808 0.74853849 -0.63007951
0.8207953 0.80821586 -0.64486432
0.92354429 0.88161933 -0.66290808
1.0537933 0.97466648 -0.68583679
1.2250067 1.0969805 -0.71621013
1.4574752 1.263051 -0.7572062
1.7947251 1.5039798 -0.81694829
2.3229485 1.8813366 -0.91021132
3.2735419 2.5604279 -1.0780731
5.4943361 4.1469326 -1.4704762
6.0012507 4.5088959 -1.3753352
6.025413 4.5259624 -1.1695577
6.0495715 4.5430293 -0.96377945
6.0737371 4.5600977 -0.75800216
6.0978961 4.5771632 -0.55222392
6.1220584 4.5942316 -0.34644625
6.1462207 4.6112986 -0.14066845
6.1703835 4.628365 0.065109223
6.1945453 4.645432 0.27088699
6.218708 4.6624994 0.47666484
6.2428703 4.6795664 0.68244255
6.2670317 4.6966333 0.88822043
6.2911949 4.7137003 1.0939981
6.3153567 4.7307673 1.299776
6.3395157 4.7478337 1.5055542
6.3636785 4.7649007 1.7113314
6.3878403 4.7819681 1.9171088
0.48393497 0.53280342 -0.5824163
0.52095866 0.55686671 -0.58865976
0.56370127 0.584647 -0.59600055
0.61322367 0.61683422 -0.6044755
0.67159593 0.65477294 -0.61456609
0.74092209 0.69983137 -0.62646997
0.82484567 0.75437677 -0.64087462
0.92807031 0.82146859 -0.6584506
1.0589207 0.906515 -0.68078637
1.2309256 1.0183098 -0.7103802
1.464465 1.1700997 -0.75031769
1.8032781 1.390309 -0.80852473
2.3339436 1.7352155 -0.89938331
3.288933 2.3559098 -1.0629179
5.5199871 3.8059835 -1.44521
6.0291476 4.1381111 -1.3478585
6.0533099 4.1551781 -1.1420808
6.0774722 4.1722455 -0.93630314
6.1016307 4.1893125 -0.7305249
6.125793 4.2063789 -0.52474725
6.1499553 4.2234464 -0.31896922
6.174118 4.2405133 -0.11319146
6.1982803 4.2575803 0.092586294
6.2224422 4.2746472 0.29836375
6.2466049 4.2917151 0.50414181
6.2707672 4.3087821 0.70991969
6.2949295 4.3258491 0.91569734
6.3190885 4.342916 1.1214757
6.3432503 4.3599825 1.327253
6.3674126 4.3770499 1.5330307
6.3915749 4.3941164 1.7388083
6.4157372 4.4111838 1.9445864
0.48642024 0.49981177 -0.57997191
0.52361155 0.52161157 -0.58604729
0.56655085 0.54677808 -0.59319425
0.61629999 0.57593703 -0.60144484
0.6749419 0.61030549 -0.6112709
0.74458587 0.65112454 -0.62286043
0.82889593 0.7005378 -0.63688481
0.93259621 0.76131821 -0.65399325
1.0640483 0.83836365 -0.67573607
1.2368443 0.93963921 -0.70455039
1.4714586 1.0771487 -0.74342954
1.8118318 1.2766383 -0.80010152
2.3449357 1.5890949 -0.88855481
3.3043199 2.1513922 -1.0477622
5.5456381 3.4650352 -1.4199442
6.0528612 3.7648766 -1.3196151
6.0770068 3.7819319 -1.1139789
6.1011529 3.7989874 -0.9083426
6.125298 3.8160429 -0.70270634
6.1494441 3.8330979 -0.49707022
6.1735892 3.8501534 -0.29143399
6.1977348 3.867209 -0.085797518
6.2218809 3.8842645 0.11983854
6.2460265 3.9013195 0.32547477
6.2701683 3.9183745 0.5311116
6.2943144 3.93543 0.73674762
6.3184605 3.9524851 0.94238365
6.3426051 3.9695406 1.14802
6.3667512 3.9865956 1.3536564
6.3908973 4.0036516 1.5592924
6.4150424 4.0207067 1.7649289
6.4391885 4.0377622 1.9705652
0.48890182 0.46681964 -0.57752693
0.52626443 0.48635638 -0.5834347
0.56940043 0.50890917 -0.59038794
0.61937606 0.53503966 -0.59841394
0.67828774 0.5658381 -0.6079756
0.74825001 0.60241765 -0.61925089
0.8329463 0.64669883 -0.63289499
0.93712211 0.7011677 -0.64953589
1.0691756 0.77021217 -0.67068577
1.242763 0.86096871 -0.69872057
1.4784522 0.98419762 -0.73654151
1.820381 1.1629674 -0.79167747
2.355931 1.4429742 -0.87772679
3.3197069 1.9468738 -1.0326064
5.57129 3.1240871 -1.3946782
6.080739 3.3943477 -1.2921572
6.1048846 3.4114029 -1.086521
6.1290307 3.4284582 -0.88088477
6.1531763 3.4455135 -0.6752485
6.1773219 3.4625688 -0.46961233
6.201468 3.4796243 -0.26397607
6.2256136 3.4966791 -0.058339804
6.2497587 3.5137348 0.14729643
6.273901 3.5307896 0.35293296
6.2980471 3.5478451 0.55856931
6.3221922 3.5649009 0.76420581
6.3463383 3.5819561 0.96984136
6.3704839 3.5990107 1.1754777
6.3946295 3.6160669 1.3811141
6.4187751 3.633122 1.5867505
6.4429207 3.6501777 1.7923865
6.4670634 3.6672325 1.9980235
0.49138334 0.43382782 -0.57508206
0.52891731 0.45110136 -0.58082223
0.57224989 0.47104019 -0.58758187
0.62245226 0.49414235 -0.59538329
0.68163371 0.52137083 -0.6046803
0.7519176 0.55371094 -0.61564195
0.83699667 0.59285975 -0.6289053
0.94164813 0.64101732 -0.64507842
1.0743032 0.70206076 -0.66563535
1.2486819 0.78229821 -0.69289064
1.4854459 0.89124632 -0.72965348
1.8289341 1.0492969 -0.78325415
2.3669231 1.2968532 -0.86689842
3.3350937 1.7423559 -1.0174506
5.596941 2.7831388 -1.3694121
6.1086178 3.0238178 -1.2646995
6.1327634 3.0408728 -1.0590632
6.1569085 3.0579283 -0.85342693
6.1810546 3.0749838 -0.64779067
6.2051969 3.0920393 -0.44215396
6.229342 3.1090946 -0.23651758
6.2534881 3.1261499 -0.030881286
6.2776341 3.1432054 0.17475492
6.3017802 3.1602607 0.38039109
6.3259254 3.177316 0.5860275
6.350071 3.1943712 0.79166365
6.374217 3.2114263 0.99729979
6.3983622 3.228482 1.2029358
6.4225082 3.2455375 1.4085722
6.4466505 3.2625918 1.6142087
6.4707961 3.2796476 1.8198452
6.4949417 3.2967026 2.0254812
0.49386486 0.40083587 -0.57263708
0.53156626 0.41584599 -0.57820928
0.57509565 0.43317103 -0.58477509
0.62553215 0.45324528 -0.59235287
0.68497944 0.47690344 -0.60138524
0.7555815 0.50500393 -0.61203241
0.84104705 0.53902072 -0.62491548
0.94617403 0.58086681 -0.64062107
1.0794306 0.63390917 -0.66058493
1.2546006 0.70362741 -0.68706083
1.4924395 0.79829526 -0.72276533
1.8374873 0.93562627 -0.77483082
2.3779185 1.1507326 -0.8560704
3.350481 1.5378379 -1.0022949
5.6225958 2.4421902 -1.3441465
6.136497 2.6532884 -1.2372415
6.1606421 2.6703436 -1.0316052
6.1847844 2.6873987 -0.8259685
6.2089305 2.7044542 -0.62033236
6.2330751 2.7215097 -0.41469604
6.2572207 2.7385647 -0.20905983
6.2813668 2.7556198 -0.0034234822
6.305512 2.7726753 0.20221266
6.329658 2.7897308 0.40784892
6.3538041 2.8067863 0.61348498
6.3779459 2.8238411 0.81912172
6.4020953 2.8408968 1.0247576
6.4262371 2.8579521 1.2303944
6.4503832 2.8750074 1.4360307
6.4745283 2.8920629 1.6416668
6.4986744 2.9091179 1.8473028
6.52282 2.926173 2.0529392
0.4963465 0.36784387 -0.57019222
0.53421915 0.38059092 -0.57559669
0.57794523 0.39530206 -0.5819689
0.62860847 0.41234803 -0.58932209
0.68832529 0.43243605 -0.59809005
0.75924551 0.45629698 -0.60842288
0.84509754 0.48518175 -0.62092578
0.95069611 0.52071607 -0.63616323
1.0845582 0.56575793 -0.65553463
1.2605195 0.62495685 -0.6812309
1.4994329 0.70534396 -0.71587729
1.8460406 0.82195556 -0.76640737
2.3889139 1.0046121 -0.84524226
3.3658681 1.3333197 -0.98713899
5.6482477 2.1012418 -1.3188806
6.1601138 2.2813287 -1.2090924
6.1842427 2.2983725 -1.0035976
6.2083716 2.3154166 -0.79810297
6.2325006 2.3324597 -0.59260821
6.2566304 2.3495033 -0.3871136
6.2807593 2.3665469 -0.1816189
6.3048882 2.3835909 0.023875803
6.3290176 2.4006341 0.22937036
6.3531423 2.4176776 0.43486568
6.3772721 2.4347212 0.64036036
6.401401 2.4517648 0.84585536
6.4255304 2.4688089 1.0513501
6.4496593 2.485852 1.2568449
6.4737878 2.5028956 1.4623389
6.4979167 2.5199394 1.667834
6.5220456 2.5369828 1.8733284
6.546175 2.5540266 2.0788236
0.49882796 0.33485192 -0.56774724
0.53687215 0.34533578 -0.57298422
0.58079469 0.35743302 -0.5791626
0.63168466 0.37145078 -0.58629131
0.69167113 0.38796872 -0.59479487
0.76290941 0.40759003 -0.60481346
0.84914768 0.43134272 -0.61693609
0.95522213 0.46056563 -0.63170588
1.0896857 0.49760646 -0.6504842
1.2664421 0.54628646 -0.67540145
1.5064267 0.6123929 -0.70898914
1.8545903 0.70828468 -0.75798345
2.3999059 0.85849118 -0.83441377
3.3812551 1.1288016 -0.97198319
5.6738982 1.7602932 -1.2936146
6.1879735 1.9110543 -1.1816535
6.2121024 1.9280981 -0.97615886
6.2362313 1.9451419 -0.7706641
6.2603607 1.9621857 -0.56516945
6.2844853 1.9792289 -0.35967419
6.3086147 1.9962724 -0.1541796
6.3327441 2.0133159 0.051315159
6.3568735 2.0303595 0.25681001
6.3810024 2.0474036 0.4623045
6.4051318 2.0644469 0.66779947
6.4292603 2.0814903 0.87329423
6.4533892 2.0985341 1.078789
6.4775147 2.1155772 1.2842835
6.5016475 2.132621 1.489778
6.5257735 2.1496646 1.6952732
6.549902 2.1667085 1.9007683
6.5740314 2.1837518 2.1062627
0.50131333 0.30186015 -0.56530273
0.53952503 0.31008071 -0.57037175
0.58364415 0.31956416 -0.57635641
0.63476074 0.33055347 -0.58326054
0.69501305 0.34350115 -0.59149909
0.76657319 0.35888314 -0.60120404
0.85319805 0.37750375 -0.61294627
0.95974803 0.40041524 -0.62724841
1.0948131 0.42945504 -0.6454339
1.2723609 0.4676159 -0.66957164
1.5134202 0.51944184 -0.70210111
1.8631431 0.59461397 -0.74956
2.4109011 0.71237051 -0.82358587
3.396642 0.92428374 -0.9568274
5.6995497 1.419345 -1.2683487
6.2158337 1.5407802 -1.1542146
6.2399626 1.557824 -0.94871986
6.2640877 1.5748671 -0.74322474
6.2882175 1.591911 -0.5377301
6.312346 1.6089543 -0.33223537
6.3364754 1.625998 -0.12674071
6.3606038 1.6430416 0.078754082
6.3847327 1.6600852 0.28424877
6.4088621 1.6771287 0.48974356
6.4329877 1.6941721 0.69523871
6.4571209 1.7112161 0.90073276
6.481246 1.7282593 1.1062282
6.5053749 1.7453028 1.3117225
6.5295038 1.7623467 1.5172172
6.5536332 1.7793901 1.7227123
6.5777621 1.7964338 1.9282068
6.6018915 1.8134774 2.1337013
0.50379479 0.26886821 -0.56285799
0.5421778 0.27482557 -0.56775916
0.58649385 0.28169519 -0.57355022
0.63784075 0.28965646 -0.58023024
0.69835901 0.29903382 -0.58820391
0.77023721 0.31017613 -0.5975945
0.85724854 0.32366467 -0.60895646
0.96427393 0.34026474 -0.62279093
1.0999405 0.36130369 -0.6403836
1.2782797 0.38894534 -0.66374171
1.5204139 0.4264906 -0.69521296
1.8716964 0.48094338 -0.74113667
2.4218931 0.56624967 -0.81275737
3.412029 0.71976554 -0.94167161
5.7252007 1.0783964 -1.2430828
6.2436895 1.1705055 -1.1267751
6.2678189 1.187549 -0.9212805
6.2919478 1.2045928 -0.71578574
6.3160763 1.2216363 -0.5102911
6.3402057 1.2386798 -0.30479649
6.3643312 1.2557235 -0.099301264
6.3884606 1.2727669 0.10619342
6.4125896 1.2898103 0.3116881
6.4367185 1.3068542 0.51718283
6.4608474 1.3238976 0.72267735
6.4849763 1.3409415 0.92817247
6.5091057 1.3579849 1.133667
6.5332346 1.3750285 1.3391618
6.557364 1.3920722 1.5446563
6.5814924 1.4091157 1.7501509
6.605618 1.4261589 1.9556458
6.6297469 1.4432029 2.1611409
0.50627637 0.23587631 -0.56041288
0.54483056 0.23957048 -0.56514668
0.58934331 0.24382629 -0.57074392
0.64091694 0.2487592 -0.57719946
0.70170486 0.25456649 -0.5849086
0.77390492 0.26146948 -0.59398544
0.86130261 0.26982599 -0.60496712
0.96879971 0.28011429 -0.61833358
1.105068 0.29315221 -0.6353333
1.2841985 0.31027478 -0.65791178
1.5274074 0.33353961 -0.68832481
1.8802496 0.36727273 -0.7327131
2.4328887 0.42012906 -0.80192935
3.4274158 0.51524752 -0.9265157
5.7508559 0.73744833 -1.2178173
6.2672143 0.79982162 -1.0987211
6.291327 0.8168534 -0.89336789
6.3154392 0.83388531 -0.68801486
6.3395481 0.85091686 -0.48266116
6.3636608 0.86794877 -0.27730802
6.387773 0.88498068 -0.071954787
6.4118857 0.90201259 0.13339828
6.4359984 0.91904438 0.33875176
6.4601107 0.93607628 0.54410464
6.4842234 0.95310807 0.74945796
6.5083351 0.9701401 0.95481098
6.532444 0.98717153 1.1601646
6.5565567 1.0042033 1.3655176
6.5806689 1.0212353 1.5708712
6.6047816 1.0382671 1.7762246
6.6288943 1.055299 1.9815778
6.6530061 1.072331 2.1869309
0.50875795 0.2028843 -0.5579679
0.54748344 0.20431535 -0.56253409
0.59219277 0.20595725 -0.56793773
0.64399314 0.20786192 -0.57416868
0.70505083 0.21009915 -0.58161342
0.77756894 0.21276246 -0.5903759
0.86535287 0.21598695 -0.60097742
0.97332573 0.2199638 -0.61387622
1.1101955 0.22500081 -0.630283
1.2901173 0.23160417 -0.65208185
1.5344012 0.24058844 -0.68143678
1.8887988 0.25360185 -0.72428918
2.4438803 0.27400821 -0.79110074
3.4428031 0.31072944 -0.91135991
5.7765074 0.39649993 -1.1925513
6.2950525 0.429802 -1.0713007
6.3191648 0.44683385 -0.86594772
6.3432775 0.4638657 -0.66059446
6.3673902 0.48089755 -0.45524129
6.3915024 0.49792951 -0.24988821
6.4156151 0.51496124 -0.044534907
6.4397273 0.53199315 0.16081816
6.4638357 0.54902476 0.36617199
6.4879484 0.56605661 0.57152498
6.5120606 0.58308852 0.77687812
6.5361733 0.60012037 0.98223114
6.560286 0.61715227 1.1875848
6.5843978 0.63418406 1.3929373
6.6085105 0.65121585 1.598291
6.6326232 0.6682477 1.8036443
6.6567354 0.68527961 2.0089974
6.6808443 0.70231134 2.2143509
0.51123941 0.16989236 -0.55552304
0.55013633 0.16906027 -0.55992162
0.59504235 0.16808833 -0.56513166
0.64706933 0.16696464 -0.57113791
0.70839655 0.16563179 -0.57831824
0.78123283 0.16405554 -0.58676636
0.86940324 0.16214795 -0.59698749
0.97785175 0.15981336 -0.60941887
1.1153228 0.1568494 -0.62523258
1.2960361 0.15293355 -0.64625216
1.5413948 0.14763726 -0.67454875
1.8973521 0.13993119 -0.71586585
2.4548759 0.12788765 -0.78027272
3.4581902 0.10621141 -0.89620423
5.8021579 0.055551454 -1.1672852
6.3228941 0.05978258 -1.0438809
6.3470025 0.076814219 -0.8385272
6.3711152 0.093846157 -0.63317406
6.3952279 0.11087798 -0.42782089
6.4193401 0.12790988 -0.22246784
6.4434528 0.14494167 -0.01711449
6.4675651 0.16197355 0.18823862
6.4916778 0.17900549 0.39359191
6.5157905 0.19603734 0.59894502
6.5399027 0.2130691 0.80429816
6.5640116 0.23010083 1.0096519
6.5881243 0.24713267 1.2150053
6.6122365 0.26416463 1.4203584
6.6363492 0.28119636 1.6257116
6.6604614 0.29822814 1.8310641
6.6845737 0.31526005 2.0364177
6.7086859 0.33229196 2.241771
0.51372099 0.13690041 -0.55307806
0.55278921 0.13380511 -0.55730915
0.59789181 0.13021936 -0.56232524
0.65014553 0.12606739 -0.56810713
0.71174228 0.1211644 -0.57502306
0.78489661 0.11534856 -0.58315694
0.87345362 0.10830896 -0.59299779
0.98237753 0.099662915 -0.6049614
1.1204505 0.088697955 -0.62018228
1.3019547 0.074262992 -0.64042211
1.5483884 0.054686144 -0.66766059
1.9048244 0.026361182 -0.70716131
2.4658675 -0.018233255 -0.76944435
3.4735775 -0.098306626 -0.88104832
5.8278093 -0.28539687 -1.1420193
6.3507314 -0.31023708 -1.0164605
6.3748441 -0.29320526 -0.81110728
6.3989568 -0.27617338 -0.60575414
6.423069 -0.25914145 -0.40040097
6.4471774 -0.24210969 -0.19504738
6.4712896 -0.22507782 0.010305777
6.4954023 -0.20804602 0.21565896
6.519515 -0.19101414 0.42101195
6.5436273 -0.17398243 0.62636542
6.56774 -0.15695049 0.83171856
6.5918527 -0.13991857 1.0370713
6.6159649 -0.12288672 1.2424252
6.6400738 -0.10585505 1.4477786
6.6641903 -0.088822871 1.6531314
6.6882987 -0.071791381 1.8584849
6.7124114 -0.054759517 2.0638382
6.7365241 -0.037727714 2.2691913
0.51620626 0.10390867 -0.55063355
0.55544198 0.098550037 -0.55469644
0.60074139 0.092350438 -0.55951905
0.65322542 0.085170314 -0.56507683
0.71508813 0.076697037 -0.57172775
0.78856063 0.066641673 -0.57954741
0.87750411 0.054469928 -0.58900809
0.98690331 0.039512485 -0.60050416
1.125578 0.020546451 -0.61513197
1.3078737 -0.0044076145 -0.63459229
1.555382 -0.03826496 -0.66077244
1.9133693 -0.087245896 -0.69874215
2.4768631 -0.16435385 -0.75861633
3.4889643 -0.30282462 -0.86589253
5.8534603 -0.6263454 -1.1167532
6.3741603 -0.67964602 -0.98850095
6.398253 -0.66262597 -0.78328872
6.4223485 -0.64560586 -0.57807708
6.4464445 -0.62858576 -0.37286544
6.47054 -0.61156559 -0.16765387
6.4946361 -0.59454548 0.037557729
6.5187316 -0.57752538 0.24276957
6.5428276 -0.56050539 0.44798109
6.5669231 -0.54348516 0.65319264
6.5910192 -0.52646512 0.85840428
6.6151118 -0.50944489 1.0636162
6.6392069 -0.49242496 1.2688283
6.6633029 -0.47540492 1.47404
6.6873984 -0.45838469 1.6792513
6.7114944 -0.44136471 1.884463
6.73559 -0.42434454 2.0896747
6.759686 -0.40732455 2.2948864
0.51868784 0.070916727 -0.54818869
0.55809474 0.063294902 -0.55208397
0.60358715 0.054481193 -0.55671239
0.65630162 0.044273019 -0.56204617
0.71843398 0.032229677 -0.56843257
0.79222453 0.017934665 -0.57593799
0.88155448 0.00063091516 -0.58501828
0.99142933 -0.020638019 -0.59604669
1.1307055 -0.047604889 -0.61008155
1.3137925 -0.083078235 -0.62876236
1.5623757 -0.13121611 -0.65388441
1.921918 -0.20085278 -0.69032347
2.4878547 -0.31047472 -0.74778795
3.5043552 -0.50734264 -0.85073733
5.8791118 -0.96729386 -1.0914871
6.583632 -1.0848993 -0.9824456
6.6084094 -1.0673977 -0.77143133
6.633182 -1.0498966 -0.5604167
6.6579599 -1.0323952 -0.34940243
6.6827369 -1.0148937 -0.13838845
6.7075138 -0.99739265 0.072625935
6.7322917 -0.97989124 0.28364012
6.7570682 -0.96238989 0.49465451
6.781846 -0.94488829 0.70566845
6.8066192 -0.9273873 0.9166832
6.8313961 -0.90988588 1.1276972
6.856174 -0.89238441 1.3387113
6.8809505 -0.87488306 1.5497255
6.9057274 -0.85738158 1.7607394
6.9305048 -0.83988017 1.9717543
6.9552817 -0.82237899 2.1827683
6.9800591 -0.80487746 2.3937821
0.52116942 0.037924752 -0.5457437
0.56074393 0.02803956 -0.54947102
0.60643661 0.016612247 -0.55390608
0.65937781 0.0033757538 -0.55901527
0.72177982 -0.012237653 -0.56513739
0.79589212 -0.030772015 -0.57232893
0.88560474 -0.053208038 -0.58102846
0.99595129 -0.080788746 -0.59158874
1.1358329 -0.11575632 -0.60503113
1.3197112 -0.16174881 -0.62293255
1.5693691 -0.22416714 -0.64699638
1.9304665 -0.31445956 -0.68190479
2.4988503 -0.45659536 -0.73695993
3.519742 -0.7118606 -0.83558154
5.904767 -1.308242 -1.0662217
7.1773481 -1.607434 -1.0179894
7.2042356 -1.588442 -0.78900146
7.231123 -1.5694497 -0.56001353
7.2580109 -1.5504571 -0.33102575
7.2848949 -1.5314659 -0.10203734
7.3117833 -1.5124736 0.12695047
7.3386707 -1.4934818 0.3559387
7.3655577 -1.4744893 0.58492637
7.3924456 -1.455497 0.81391418
7.419333 -1.4365052 1.042902
7.4462209 -1.4175129 1.2718902
7.4731083 -1.3985209 1.5008783
7.4999962 -1.379529 1.7298659
